-0.0294156 0.0615617 0.804171 
-0.0279337 0.0615313 0.805171 
-0.0265071 0.0615313 0.805171 
-0.0250804 0.0615313 0.805171 
-0.0236537 0.0615313 0.805171 
-0.0222271 0.0615313 0.805171 
-0.0207337 0.0615008 0.806171 
-0.0192366 0.0614703 0.807171 
-0.0177356 0.0614398 0.808171 
-0.0162309 0.0614093 0.809171 
-0.0147223 0.0613789 0.810171 
-0.0131337 0.0613179 0.812171 
-0.0116156 0.0612874 0.813171 
-0.0100937 0.061257 0.814171 
-0.00856802 0.0612265 0.815171 
-0.0070385 0.061196 0.816171 
-0.00550517 0.0611655 0.817171 
-0.00396803 0.0611351 0.818171 
-0.00242707 0.0611046 0.819171 
0.0667901 0.061196 0.816171 
0.0680548 0.0612265 0.815171 
0.0693158 0.061257 0.814171 
0.0707596 0.061257 0.814171 
0.0720148 0.0612874 0.813171 
0.0732663 0.0613179 0.812171 
0.0747063 0.0613179 0.812171 
0.075952 0.0613484 0.811171 
0.0771939 0.0613789 0.810171 
0.0786301 0.0613789 0.810171 
0.0798663 0.0614093 0.809171 
0.0810986 0.0614398 0.808171 
0.082531 0.0614398 0.808171 
0.0837577 0.0614703 0.807171 
0.0849805 0.0615008 0.806171 
0.0864091 0.0615008 0.806171 
0.0876263 0.0615313 0.805171 
0.0888396 0.0615617 0.804171 
0.0902644 0.0615617 0.804171 
0.091472 0.0615922 0.803171 
0.0926758 0.0616227 0.802171 
0.0940968 0.0616227 0.802171 
0.0952948 0.0616532 0.801171 
0.0964891 0.0616836 0.800171 
0.0979063 0.0616836 0.800171 
0.0990948 0.0617141 0.799171 
0.10028 0.0617446 0.798171 
0.101693 0.0617446 0.798171 
0.102872 0.0617751 0.797171 
0.104283 0.0617751 0.797171 
0.105457 0.0618055 0.796171 
0.106626 0.061836 0.795171 
0.107792 0.0618665 0.794171 
0.108954 0.061897 0.793171 
0.110112 0.0619274 0.792171 
0.111019 0.0619884 0.790171 
0.111918 0.0620493 0.788171 
0.113312 0.0620493 0.788171 
0.114706 0.0620493 0.788171 
0.117377 0.061897 0.793171 
0.119038 0.0618665 0.794171 
0.120702 0.061836 0.795171 
0.12211 0.061836 0.795171 
0.123781 0.0618055 0.796171 
0.125455 0.0617751 0.797171 
0.127133 0.0617446 0.798171 
0.128546 0.0617446 0.798171 
0.13023 0.0617141 0.799171 
0.131918 0.0616836 0.800171 
0.133609 0.0616532 0.801171 
0.135028 0.0616532 0.801171 
0.136725 0.0616227 0.802171 
0.138426 0.0615922 0.803171 
0.140131 0.0615617 0.804171 
0.141556 0.0615617 0.804171 
0.143266 0.0615313 0.805171 
0.144981 0.0615008 0.806171 
0.146699 0.0614703 0.807171 
0.148129 0.0614703 0.807171 
0.149853 0.0614398 0.808171 
0.151581 0.0614093 0.809171 
0.153312 0.0613789 0.810171 
0.154748 0.0613789 0.810171 
0.156485 0.0613484 0.811171 
0.158226 0.0613179 0.812171 
0.159666 0.0613179 0.812171 
0.161413 0.0612874 0.813171 
-0.28585 0.0631293 0.799171 
-0.284722 0.0631008 0.800171 
-0.287267 0.0619579 0.840171 
-0.285499 0.0619865 0.839171 
-0.283463 0.0620436 0.837171 
-0.281435 0.0621008 0.835171 
-0.279951 0.0621008 0.835171 
-0.278467 0.0621008 0.835171 
-0.276983 0.0621008 0.835171 
-0.275499 0.0621008 0.835171 
-0.274016 0.0621008 0.835171 
-0.272532 0.0621008 0.835171 
-0.271048 0.0621008 0.835171 
-0.269564 0.0621008 0.835171 
-0.26808 0.0621008 0.835171 
-0.266597 0.0621008 0.835171 
-0.265113 0.0621008 0.835171 
-0.263629 0.0621008 0.835171 
-0.262145 0.0621008 0.835171 
-0.260661 0.0621008 0.835171 
-0.259178 0.0621008 0.835171 
-0.257454 0.0621293 0.834171 
-0.255972 0.0621293 0.834171 
-0.25449 0.0621293 0.834171 
-0.253008 0.0621293 0.834171 
-0.251526 0.0621293 0.834171 
-0.250044 0.0621293 0.834171 
-0.248562 0.0621293 0.834171 
-0.24708 0.0621293 0.834171 
-0.245599 0.0621293 0.834171 
-0.244117 0.0621293 0.834171 
-0.242414 0.0621579 0.833171 
-0.240934 0.0621579 0.833171 
-0.239454 0.0621579 0.833171 
-0.237974 0.0621579 0.833171 
-0.236494 0.0621579 0.833171 
-0.235014 0.0621579 0.833171 
-0.233534 0.0621579 0.833171 
-0.232054 0.0621579 0.833171 
-0.230574 0.0621579 0.833171 
-0.229094 0.0621579 0.833171 
-0.227412 0.0621865 0.832171 
-0.225934 0.0621865 0.832171 
-0.224456 0.0621865 0.832171 
-0.222978 0.0621865 0.832171 
-0.221499 0.0621865 0.832171 
-0.220021 0.0621865 0.832171 
-0.218543 0.0621865 0.832171 
-0.217065 0.0621865 0.832171 
-0.2154 0.0622151 0.831171 
-0.213924 0.0622151 0.831171 
-0.212448 0.0622151 0.831171 
-0.210972 0.0622151 0.831171 
-0.209496 0.0622151 0.831171 
-0.208019 0.0622151 0.831171 
-0.206543 0.0622151 0.831171 
-0.205067 0.0622151 0.831171 
-0.203419 0.0622436 0.830171 
-0.201945 0.0622436 0.830171 
-0.200471 0.0622436 0.830171 
-0.198997 0.0622436 0.830171 
-0.197522 0.0622436 0.830171 
-0.196048 0.0622436 0.830171 
-0.194574 0.0622436 0.830171 
-0.193099 0.0622436 0.830171 
-0.191781 0.0622151 0.831171 
-0.190305 0.0622151 0.831171 
-0.188829 0.0622151 0.831171 
-0.187503 0.0621865 0.832171 
-0.127336 0.0620151 0.838171 
-0.125846 0.0620151 0.838171 
-0.124357 0.0620151 0.838171 
-0.123467 0.0617579 0.847171 
-0.12196 0.0617579 0.847171 
-0.120454 0.0617579 0.847171 
-0.118947 0.0617579 0.847171 
-0.11744 0.0617579 0.847171 
-0.115934 0.0617579 0.847171 
-0.114427 0.0617579 0.847171 
-0.11292 0.0617579 0.847171 
-0.111414 0.0617579 0.847171 
-0.109511 0.0619865 0.839171 
-0.107972 0.0620151 0.838171 
-0.106574 0.0619579 0.840171 
-0.0649052 0.0625008 0.821171 
-0.0634575 0.0625293 0.820171 
-0.0620137 0.0625579 0.819171 
-0.0605737 0.0625865 0.818171 
-0.0591375 0.0626151 0.817171 
-0.0577052 0.0626436 0.816171 
-0.0562766 0.0626722 0.815171 
-0.0548518 0.0627008 0.814171 
-0.0534309 0.0627293 0.813171 
-0.0520137 0.0627579 0.812171 
-0.0506004 0.0627865 0.811171 
-0.0491909 0.0628151 0.810171 
-0.0477852 0.0628436 0.809171 
-0.0463833 0.0628722 0.808171 
-0.0449852 0.0629008 0.807171 
-0.0435909 0.0629293 0.806171 
-0.0421623 0.0629293 0.806171 
-0.0407737 0.0629579 0.805171 
-0.0393471 0.0629579 0.805171 
-0.0379204 0.0629579 0.805171 
-0.0364937 0.0629579 0.805171 
-0.0350194 0.0629293 0.806171 
-0.0335909 0.0629293 0.806171 
-0.0321623 0.0629293 0.806171 
-0.0307337 0.0629293 0.806171 
-0.0293052 0.0629293 0.806171 
-0.0278766 0.0629293 0.806171 
-0.026448 0.0629293 0.806171 
-0.0250195 0.0629293 0.806171 
-0.0235909 0.0629293 0.806171 
-0.0220975 0.0629008 0.807171 
-0.0206671 0.0629008 0.807171 
-0.019168 0.0628722 0.808171 
-0.0176652 0.0628436 0.809171 
-0.0161585 0.0628151 0.810171 
-0.014648 0.0627865 0.811171 
-0.0131337 0.0627579 0.812171 
-0.0116156 0.0627293 0.813171 
-0.0100937 0.0627008 0.814171 
-0.00848612 0.0626436 0.816171 
-0.00695469 0.0626151 0.817171 
-0.00541945 0.0625865 0.818171 
-0.00388041 0.0625579 0.819171 
0.0667901 0.0626436 0.816171 
0.0680548 0.0626722 0.815171 
0.0695006 0.0626722 0.815171 
0.0707596 0.0627008 0.814171 
0.0720148 0.0627293 0.813171 
0.0734567 0.0627293 0.813171 
0.0747063 0.0627579 0.812171 
0.075952 0.0627865 0.811171 
0.0773901 0.0627865 0.811171 
0.0786301 0.0628151 0.810171 
0.0798663 0.0628436 0.809171 
0.0813005 0.0628436 0.809171 
0.082531 0.0628722 0.808171 
0.0837577 0.0629008 0.807171 
0.0851882 0.0629008 0.807171 
0.0864091 0.0629293 0.806171 
0.0876263 0.0629579 0.805171 
0.0890529 0.0629579 0.805171 
0.0902644 0.0629865 0.804171 
0.091472 0.0630151 0.803171 
0.0928948 0.0630151 0.803171 
0.0940968 0.0630436 0.802171 
0.0952948 0.0630722 0.801171 
0.0967139 0.0630722 0.801171 
0.0979063 0.0631008 0.800171 
0.0990948 0.0631293 0.799171 
0.10051 0.0631293 0.799171 
0.101693 0.0631579 0.798171 
0.102872 0.0631865 0.797171 
0.104283 0.0631865 0.797171 
0.105457 0.0632151 0.796171 
0.106626 0.0632436 0.795171 
0.107792 0.0632722 0.794171 
0.108954 0.0633008 0.793171 
0.110112 0.0633293 0.792171 
0.111019 0.0633865 0.790171 
0.112167 0.0634151 0.789171 
0.113312 0.0634436 0.788171 
0.11496 0.0634151 0.789171 
0.117377 0.0633008 0.793171 
0.119038 0.0632722 0.794171 
0.120702 0.0632436 0.795171 
0.122371 0.0632151 0.796171 
0.124043 0.0631865 0.797171 
0.125455 0.0631865 0.797171 
0.127133 0.0631579 0.798171 
0.128815 0.0631293 0.799171 
0.13023 0.0631293 0.799171 
0.131918 0.0631008 0.800171 
0.133609 0.0630722 0.801171 
0.135304 0.0630436 0.802171 
0.136725 0.0630436 0.802171 
0.138426 0.0630151 0.803171 
0.140131 0.0629865 0.804171 
0.14184 0.0629579 0.805171 
0.143266 0.0629579 0.805171 
0.144981 0.0629293 0.806171 
0.146699 0.0629008 0.807171 
0.148421 0.0628722 0.808171 
0.149853 0.0628722 0.808171 
0.151581 0.0628436 0.809171 
0.153312 0.0628151 0.810171 
0.155047 0.0627865 0.811171 
0.156485 0.0627865 0.811171 
0.158226 0.0627579 0.812171 
0.159971 0.0627293 0.813171 
-0.28585 0.0645446 0.799171 
-0.284435 0.0645446 0.799171 
-0.283305 0.0645179 0.800171 
-0.287267 0.0634512 0.840171 
-0.285499 0.0634779 0.839171 
-0.283463 0.0635312 0.837171 
-0.281435 0.0635846 0.835171 
-0.279682 0.0636112 0.834171 
-0.2782 0.0636112 0.834171 
-0.276718 0.0636112 0.834171 
-0.275499 0.0635846 0.835171 
-0.274016 0.0635846 0.835171 
-0.272532 0.0635846 0.835171 
-0.271048 0.0635846 0.835171 
-0.269564 0.0635846 0.835171 
-0.267827 0.0636112 0.834171 
-0.266345 0.0636112 0.834171 
-0.264863 0.0636112 0.834171 
-0.263381 0.0636112 0.834171 
-0.261899 0.0636112 0.834171 
-0.260418 0.0636112 0.834171 
-0.258936 0.0636112 0.834171 
-0.257454 0.0636112 0.834171 
-0.255972 0.0636112 0.834171 
-0.25449 0.0636112 0.834171 
-0.253008 0.0636112 0.834171 
-0.251294 0.0636379 0.833171 
-0.249814 0.0636379 0.833171 
-0.248334 0.0636379 0.833171 
-0.246854 0.0636379 0.833171 
-0.245374 0.0636379 0.833171 
-0.243894 0.0636379 0.833171 
-0.242414 0.0636379 0.833171 
-0.240934 0.0636379 0.833171 
-0.239454 0.0636379 0.833171 
-0.237974 0.0636379 0.833171 
-0.23628 0.0636646 0.832171 
-0.234802 0.0636646 0.832171 
-0.233324 0.0636646 0.832171 
-0.231846 0.0636646 0.832171 
-0.230368 0.0636646 0.832171 
-0.22889 0.0636646 0.832171 
-0.227412 0.0636646 0.832171 
-0.225934 0.0636646 0.832171 
-0.224456 0.0636646 0.832171 
-0.222781 0.0636913 0.831171 
-0.221305 0.0636913 0.831171 
-0.219829 0.0636913 0.831171 
-0.218353 0.0636913 0.831171 
-0.216877 0.0636913 0.831171 
-0.2154 0.0636913 0.831171 
-0.213924 0.0636913 0.831171 
-0.212448 0.0636913 0.831171 
-0.210972 0.0636913 0.831171 
-0.209317 0.0637179 0.830171 
-0.207842 0.0637179 0.830171 
-0.206368 0.0637179 0.830171 
-0.204894 0.0637179 0.830171 
-0.203419 0.0637179 0.830171 
-0.201945 0.0637179 0.830171 
-0.200471 0.0637179 0.830171 
-0.198997 0.0637179 0.830171 
-0.197522 0.0637179 0.830171 
-0.196048 0.0637179 0.830171 
-0.194574 0.0637179 0.830171 
-0.193099 0.0637179 0.830171 
-0.191781 0.0636913 0.831171 
-0.190305 0.0636913 0.831171 
-0.188981 0.0636646 0.832171 
-0.127336 0.0635046 0.838171 
-0.125846 0.0635046 0.838171 
-0.124425 0.0634779 0.839171 
-0.1234 0.0632913 0.846171 
-0.12196 0.0632646 0.847171 
-0.120454 0.0632646 0.847171 
-0.118947 0.0632646 0.847171 
-0.11744 0.0632646 0.847171 
-0.115934 0.0632646 0.847171 
-0.114427 0.0632646 0.847171 
-0.11292 0.0632646 0.847171 
-0.111414 0.0632646 0.847171 
-0.109461 0.0635046 0.838171 
-0.107972 0.0635046 0.838171 
-0.106619 0.0634246 0.841171 
-0.063448 0.0639579 0.821171 
-0.0620023 0.0639846 0.820171 
-0.0605604 0.0640112 0.819171 
-0.0591223 0.0640379 0.818171 
-0.057688 0.0640646 0.817171 
-0.0562575 0.0640913 0.816171 
-0.0548309 0.0641179 0.815171 
-0.053408 0.0641446 0.814171 
-0.051989 0.0641712 0.813171 
-0.0505737 0.0641979 0.812171 
-0.0491623 0.0642246 0.811171 
-0.0477547 0.0642513 0.810171 
-0.0463509 0.0642779 0.809171 
-0.0449166 0.0642779 0.809171 
-0.0435185 0.0643046 0.808171 
-0.0421242 0.0643312 0.807171 
-0.0406937 0.0643312 0.807171 
-0.0392633 0.0643312 0.807171 
-0.0378328 0.0643312 0.807171 
-0.0364023 0.0643312 0.807171 
-0.0349718 0.0643312 0.807171 
-0.0335414 0.0643312 0.807171 
-0.0321109 0.0643312 0.807171 
-0.0306271 0.0643046 0.808171 
-0.0291947 0.0643046 0.808171 
-0.0277623 0.0643046 0.808171 
-0.0263299 0.0643046 0.808171 
-0.0248975 0.0643046 0.808171 
-0.0234652 0.0643046 0.808171 
-0.0220328 0.0643046 0.808171 
-0.0205337 0.0642779 0.809171 
-0.0190995 0.0642779 0.809171 
-0.0175947 0.0642513 0.810171 
-0.0160861 0.0642246 0.811171 
-0.0145737 0.0641979 0.812171 
-0.0130576 0.0641712 0.813171 
-0.0115376 0.0641446 0.814171 
-0.0100137 0.0641179 0.815171 
-0.00848612 0.0640913 0.816171 
-0.00687088 0.0640379 0.818171 
-0.00533374 0.0640112 0.819171 
-0.00379279 0.0639846 0.820171 
0.0667901 0.0640913 0.816171 
0.0680548 0.0641179 0.815171 
0.0695006 0.0641179 0.815171 
0.0707596 0.0641446 0.814171 
0.0720148 0.0641712 0.813171 
0.0734567 0.0641712 0.813171 
0.0747063 0.0641979 0.812171 
0.075952 0.0642246 0.811171 
0.0773901 0.0642246 0.811171 
0.0786301 0.0642513 0.810171 
0.0798663 0.0642779 0.809171 
0.0813005 0.0642779 0.809171 
0.082531 0.0643046 0.808171 
0.0837577 0.0643312 0.807171 
0.0851882 0.0643312 0.807171 
0.0864091 0.0643579 0.806171 
0.0876263 0.0643846 0.805171 
0.0890529 0.0643846 0.805171 
0.0902644 0.0644113 0.804171 
0.091472 0.0644379 0.803171 
0.0928948 0.0644379 0.803171 
0.0940968 0.0644646 0.802171 
0.0952948 0.0644912 0.801171 
0.0967139 0.0644912 0.801171 
0.0979063 0.0645179 0.800171 
0.0990948 0.0645446 0.799171 
0.10051 0.0645446 0.799171 
0.101693 0.0645712 0.798171 
0.103106 0.0645712 0.798171 
0.104283 0.0645979 0.797171 
0.105457 0.0646246 0.796171 
0.106626 0.0646513 0.795171 
0.108034 0.0646513 0.795171 
0.109198 0.0646779 0.794171 
0.110112 0.0647312 0.792171 
0.111019 0.0647846 0.790171 
0.112167 0.0648112 0.789171 
0.113312 0.0648379 0.788171 
0.11496 0.0648112 0.789171 
0.117632 0.0646779 0.794171 
0.119295 0.0646513 0.795171 
0.120702 0.0646513 0.795171 
0.122371 0.0646246 0.796171 
0.124043 0.0645979 0.797171 
0.12572 0.0645712 0.798171 
0.127133 0.0645712 0.798171 
0.128815 0.0645446 0.799171 
0.130501 0.0645179 0.800171 
0.13219 0.0644912 0.801171 
0.133609 0.0644912 0.801171 
0.135304 0.0644646 0.802171 
0.137003 0.0644379 0.803171 
0.138706 0.0644113 0.804171 
0.140131 0.0644113 0.804171 
0.14184 0.0643846 0.805171 
0.143552 0.0643579 0.806171 
0.145268 0.0643312 0.807171 
0.146699 0.0643312 0.807171 
0.148421 0.0643046 0.808171 
0.150146 0.0642779 0.809171 
0.151581 0.0642779 0.809171 
0.153312 0.0642513 0.810171 
0.155047 0.0642246 0.811171 
0.156786 0.0641979 0.812171 
0.158226 0.0641979 0.812171 
0.159971 0.0641712 0.813171 
-0.284147 0.0659846 0.798171 
-0.283019 0.0659598 0.799171 
-0.281888 0.0659351 0.800171 
-0.287543 0.0649198 0.841171 
-0.285499 0.0649693 0.839171 
-0.283463 0.0650189 0.837171 
-0.281705 0.0650436 0.836171 
-0.279682 0.0650932 0.834171 
-0.277934 0.0651179 0.833171 
-0.276454 0.0651179 0.833171 
-0.275237 0.0650932 0.834171 
-0.273755 0.0650932 0.834171 
-0.272273 0.0650932 0.834171 
-0.270791 0.0650932 0.834171 
-0.269309 0.0650932 0.834171 
-0.267827 0.0650932 0.834171 
-0.266345 0.0650932 0.834171 
-0.264863 0.0650932 0.834171 
-0.263381 0.0650932 0.834171 
-0.261899 0.0650932 0.834171 
-0.260418 0.0650932 0.834171 
-0.258694 0.0651179 0.833171 
-0.257214 0.0651179 0.833171 
-0.255734 0.0651179 0.833171 
-0.254254 0.0651179 0.833171 
-0.252774 0.0651179 0.833171 
-0.251294 0.0651179 0.833171 
-0.249814 0.0651179 0.833171 
-0.248334 0.0651179 0.833171 
-0.246854 0.0651179 0.833171 
-0.245374 0.0651179 0.833171 
-0.243671 0.0651427 0.832171 
-0.242193 0.0651427 0.832171 
-0.240715 0.0651427 0.832171 
-0.239237 0.0651427 0.832171 
-0.237759 0.0651427 0.832171 
-0.23628 0.0651427 0.832171 
-0.234802 0.0651427 0.832171 
-0.233324 0.0651427 0.832171 
-0.231846 0.0651427 0.832171 
-0.230368 0.0651427 0.832171 
-0.22889 0.0651427 0.832171 
-0.22721 0.0651674 0.831171 
-0.225734 0.0651674 0.831171 
-0.224258 0.0651674 0.831171 
-0.222781 0.0651674 0.831171 
-0.221305 0.0651674 0.831171 
-0.219829 0.0651674 0.831171 
-0.218353 0.0651674 0.831171 
-0.216688 0.0651922 0.830171 
-0.215214 0.0651922 0.830171 
-0.213739 0.0651922 0.830171 
-0.212265 0.0651922 0.830171 
-0.210791 0.0651922 0.830171 
-0.209317 0.0651922 0.830171 
-0.207842 0.0651922 0.830171 
-0.206368 0.0651922 0.830171 
-0.204894 0.0651922 0.830171 
-0.203248 0.065217 0.829171 
-0.201776 0.065217 0.829171 
-0.200303 0.065217 0.829171 
-0.198831 0.065217 0.829171 
-0.197359 0.065217 0.829171 
-0.196048 0.0651922 0.830171 
-0.194574 0.0651922 0.830171 
-0.193099 0.0651922 0.830171 
-0.191781 0.0651674 0.831171 
-0.190459 0.0651427 0.832171 
-0.188981 0.0651427 0.832171 
-0.127263 0.0650189 0.837171 
-0.125776 0.0650189 0.837171 
-0.124425 0.0649693 0.839171 
-0.123467 0.0647712 0.847171 
-0.12196 0.0647712 0.847171 
-0.120454 0.0647712 0.847171 
-0.118947 0.0647712 0.847171 
-0.11744 0.0647712 0.847171 
-0.115934 0.0647712 0.847171 
-0.114427 0.0647712 0.847171 
-0.11292 0.0647712 0.847171 
-0.111414 0.0647712 0.847171 
-0.109461 0.0649941 0.838171 
-0.107924 0.0650189 0.837171 
-0.106711 0.0648703 0.843171 
-0.0634385 0.0653903 0.822171 
-0.0619909 0.0654151 0.821171 
-0.0605471 0.0654398 0.820171 
-0.0591071 0.0654646 0.819171 
-0.0576709 0.0654893 0.818171 
-0.0562385 0.0655141 0.817171 
-0.0548099 0.0655389 0.816171 
-0.0533852 0.0655636 0.815171 
-0.0519642 0.0655884 0.814171 
-0.0505471 0.0656132 0.813171 
-0.0491337 0.0656379 0.812171 
-0.0477242 0.0656627 0.811171 
-0.0462861 0.0656627 0.811171 
-0.0448823 0.0656874 0.810171 
-0.0434823 0.0657122 0.809171 
-0.042048 0.0657122 0.809171 
-0.0406537 0.065737 0.808171 
-0.0392214 0.065737 0.808171 
-0.0377452 0.0657122 0.809171 
-0.0363109 0.0657122 0.809171 
-0.0348766 0.0657122 0.809171 
-0.0334423 0.0657122 0.809171 
-0.032008 0.0657122 0.809171 
-0.0305737 0.0657122 0.809171 
-0.0291395 0.0657122 0.809171 
-0.027648 0.0656874 0.810171 
-0.0262118 0.0656874 0.810171 
-0.0247756 0.0656874 0.810171 
-0.0233395 0.0656874 0.810171 
-0.0219033 0.0656874 0.810171 
-0.0204671 0.0656874 0.810171 
-0.0190309 0.0656874 0.810171 
-0.0175242 0.0656627 0.811171 
-0.0160137 0.0656379 0.812171 
-0.0144995 0.0656132 0.813171 
-0.0129814 0.0655884 0.814171 
-0.0114595 0.0655636 0.815171 
-0.00993374 0.0655389 0.816171 
-0.00840421 0.0655141 0.817171 
-0.00687088 0.0654893 0.818171 
-0.00533374 0.0654646 0.819171 
0.0667901 0.0655389 0.816171 
0.0682377 0.0655389 0.816171 
0.0695006 0.0655636 0.815171 
0.0707596 0.0655884 0.814171 
0.0722034 0.0655884 0.814171 
0.0734567 0.0656132 0.813171 
0.0747063 0.0656379 0.812171 
0.0761463 0.0656379 0.812171 
0.0773901 0.0656627 0.811171 
0.0786301 0.0656874 0.810171 
0.0800663 0.0656874 0.810171 
0.0813005 0.0657122 0.809171 
0.082531 0.065737 0.808171 
0.0839634 0.065737 0.808171 
0.0851882 0.0657617 0.807171 
0.0864091 0.0657865 0.806171 
0.0878377 0.0657865 0.806171 
0.0890529 0.0658112 0.805171 
0.0902644 0.065836 0.804171 
0.0916891 0.065836 0.804171 
0.0928948 0.0658608 0.803171 
0.0940968 0.0658855 0.802171 
0.0955177 0.0658855 0.802171 
0.0967139 0.0659103 0.801171 
0.0979063 0.0659351 0.800171 
0.0993234 0.0659351 0.800171 
0.10051 0.0659598 0.799171 
0.101693 0.0659846 0.798171 
0.103106 0.0659846 0.798171 
0.104283 0.0660093 0.797171 
0.105457 0.0660341 0.796171 
0.106866 0.0660341 0.796171 
0.108034 0.0660589 0.795171 
0.109198 0.0660836 0.794171 
0.110112 0.0661332 0.792171 
0.111019 0.0661827 0.790171 
0.112167 0.0662074 0.789171 
0.113563 0.0662074 0.789171 
0.115213 0.0661827 0.790171 
0.117632 0.0660836 0.794171 
0.119295 0.0660589 0.795171 
0.120962 0.0660341 0.796171 
0.122371 0.0660341 0.796171 
0.124043 0.0660093 0.797171 
0.12572 0.0659846 0.798171 
0.1274 0.0659598 0.799171 
0.128815 0.0659598 0.799171 
0.130501 0.0659351 0.800171 
0.13219 0.0659103 0.801171 
0.133883 0.0658855 0.802171 
0.135304 0.0658855 0.802171 
0.137003 0.0658608 0.803171 
0.138706 0.065836 0.804171 
0.140413 0.0658112 0.805171 
0.14184 0.0658112 0.805171 
0.143552 0.0657865 0.806171 
0.145268 0.0657617 0.807171 
0.146988 0.065737 0.808171 
0.148421 0.065737 0.808171 
0.150146 0.0657122 0.809171 
0.151876 0.0656874 0.810171 
0.153609 0.0656627 0.811171 
0.155047 0.0656627 0.811171 
0.156786 0.0656379 0.812171 
0.158529 0.0656132 0.813171 
0.160276 0.0655884 0.814171 
-0.284435 0.0673751 0.799171 
-0.282734 0.0673979 0.798171 
-0.281604 0.0673751 0.799171 
-0.280471 0.0673522 0.800171 
-0.287543 0.0664151 0.841171 
-0.285499 0.0664608 0.839171 
-0.283736 0.0664836 0.838171 
-0.281705 0.0665293 0.836171 
-0.279682 0.0665751 0.834171 
-0.277934 0.0665979 0.833171 
-0.276454 0.0665979 0.833171 
-0.274974 0.0665979 0.833171 
-0.273494 0.0665979 0.833171 
-0.272014 0.0665979 0.833171 
-0.270534 0.0665979 0.833171 
-0.269054 0.0665979 0.833171 
-0.267574 0.0665979 0.833171 
-0.266094 0.0665979 0.833171 
-0.264614 0.0665979 0.833171 
-0.263134 0.0665979 0.833171 
-0.261654 0.0665979 0.833171 
-0.260174 0.0665979 0.833171 
-0.258694 0.0665979 0.833171 
-0.257214 0.0665979 0.833171 
-0.255734 0.0665979 0.833171 
-0.254254 0.0665979 0.833171 
-0.252539 0.0666208 0.832171 
-0.251061 0.0666208 0.832171 
-0.249583 0.0666208 0.832171 
-0.248105 0.0666208 0.832171 
-0.246627 0.0666208 0.832171 
-0.245149 0.0666208 0.832171 
-0.243671 0.0666208 0.832171 
-0.242193 0.0666208 0.832171 
-0.240715 0.0666208 0.832171 
-0.239237 0.0666208 0.832171 
-0.237543 0.0666436 0.831171 
-0.236067 0.0666436 0.831171 
-0.234591 0.0666436 0.831171 
-0.233115 0.0666436 0.831171 
-0.231639 0.0666436 0.831171 
-0.230162 0.0666436 0.831171 
-0.228686 0.0666436 0.831171 
-0.22721 0.0666436 0.831171 
-0.225734 0.0666436 0.831171 
-0.224258 0.0666436 0.831171 
-0.222585 0.0666665 0.830171 
-0.221111 0.0666665 0.830171 
-0.219637 0.0666665 0.830171 
-0.218162 0.0666665 0.830171 
-0.216688 0.0666665 0.830171 
-0.215214 0.0666665 0.830171 
-0.213739 0.0666665 0.830171 
-0.212265 0.0666665 0.830171 
-0.21061 0.0666893 0.829171 
-0.209138 0.0666893 0.829171 
-0.207665 0.0666893 0.829171 
-0.206193 0.0666893 0.829171 
-0.20472 0.0666893 0.829171 
-0.203248 0.0666893 0.829171 
-0.201776 0.0666893 0.829171 
-0.200303 0.0666893 0.829171 
-0.198831 0.0666893 0.829171 
-0.197359 0.0666893 0.829171 
-0.195886 0.0666893 0.829171 
-0.194574 0.0666665 0.830171 
-0.193099 0.0666665 0.830171 
-0.191781 0.0666436 0.831171 
-0.190459 0.0666208 0.832171 
-0.189134 0.0665979 0.833171 
-0.127191 0.0665293 0.836171 
-0.125705 0.0665293 0.836171 
-0.124494 0.0664379 0.840171 
-0.1234 0.0663008 0.846171 
-0.12196 0.0662779 0.847171 
-0.120454 0.0662779 0.847171 
-0.118947 0.0662779 0.847171 
-0.11744 0.0662779 0.847171 
-0.115934 0.0662779 0.847171 
-0.114427 0.0662779 0.847171 
-0.11292 0.0662779 0.847171 
-0.111414 0.0662779 0.847171 
-0.109412 0.0665065 0.837171 
-0.107924 0.0665065 0.837171 
-0.106757 0.0663465 0.844171 
-0.0619795 0.0668493 0.822171 
-0.0605337 0.0668722 0.821171 
-0.0590918 0.0668951 0.820171 
-0.0576537 0.0669179 0.819171 
-0.0562195 0.0669408 0.818171 
-0.054789 0.0669636 0.817171 
-0.0533623 0.0669865 0.816171 
-0.0519395 0.0670093 0.815171 
-0.0505204 0.0670322 0.814171 
-0.0491052 0.0670551 0.813171 
-0.0476937 0.0670779 0.812171 
-0.0462537 0.0670779 0.812171 
-0.044848 0.0671008 0.811171 
-0.0434461 0.0671236 0.810171 
-0.0420099 0.0671236 0.810171 
-0.0405737 0.0671236 0.810171 
-0.0391375 0.0671236 0.810171 
-0.0377014 0.0671236 0.810171 
-0.0362652 0.0671236 0.810171 
-0.0347814 0.0671008 0.811171 
-0.0333433 0.0671008 0.811171 
-0.0319052 0.0671008 0.811171 
-0.0304671 0.0671008 0.811171 
-0.029029 0.0671008 0.811171 
-0.0275909 0.0671008 0.811171 
-0.0261528 0.0671008 0.811171 
-0.0246537 0.0670779 0.812171 
-0.0232137 0.0670779 0.812171 
-0.0217737 0.0670779 0.812171 
-0.0203337 0.0670779 0.812171 
-0.0188937 0.0670779 0.812171 
-0.0174537 0.0670779 0.812171 
-0.0160137 0.0670779 0.812171 
-0.0144995 0.0670551 0.813171 
-0.0129814 0.0670322 0.814171 
-0.0114595 0.0670093 0.815171 
-0.00985374 0.0669636 0.817171 
-0.00832231 0.0669408 0.818171 
-0.00678707 0.0669179 0.819171 
-0.00524802 0.0668951 0.820171 
0.066971 0.0669636 0.817171 
0.0682377 0.0669865 0.816171 
0.0695006 0.0670093 0.815171 
0.0709463 0.0670093 0.815171 
0.0722034 0.0670322 0.814171 
0.0734567 0.0670551 0.813171 
0.0748986 0.0670551 0.813171 
0.0761463 0.0670779 0.812171 
0.0773901 0.0671008 0.811171 
0.0788282 0.0671008 0.811171 
0.0800663 0.0671236 0.810171 
0.0813005 0.0671465 0.809171 
0.0827348 0.0671465 0.809171 
0.0839634 0.0671693 0.808171 
0.0851882 0.0671922 0.807171 
0.0866186 0.0671922 0.807171 
0.0878377 0.0672151 0.806171 
0.0890529 0.0672379 0.805171 
0.0904796 0.0672379 0.805171 
0.0916891 0.0672608 0.804171 
0.0928948 0.0672836 0.803171 
0.0943177 0.0672836 0.803171 
0.0955177 0.0673065 0.802171 
0.0967139 0.0673293 0.801171 
0.0979063 0.0673522 0.800171 
0.0993234 0.0673522 0.800171 
0.10051 0.0673751 0.799171 
0.101925 0.0673751 0.799171 
0.103106 0.0673979 0.798171 
0.104283 0.0674208 0.797171 
0.105695 0.0674208 0.797171 
0.106866 0.0674436 0.796171 
0.108034 0.0674665 0.795171 
0.109198 0.0674893 0.794171 
0.110112 0.0675351 0.792171 
0.111019 0.0675808 0.790171 
0.112167 0.0676036 0.789171 
0.113563 0.0676036 0.789171 
0.11572 0.0675351 0.792171 
0.117632 0.0674893 0.794171 
0.119295 0.0674665 0.795171 
0.120962 0.0674436 0.796171 
0.122632 0.0674208 0.797171 
0.124043 0.0674208 0.797171 
0.12572 0.0673979 0.798171 
0.1274 0.0673751 0.799171 
0.129083 0.0673522 0.800171 
0.130501 0.0673522 0.800171 
0.13219 0.0673293 0.801171 
0.133883 0.0673065 0.802171 
0.135581 0.0672836 0.803171 
0.137282 0.0672608 0.804171 
0.138706 0.0672608 0.804171 
0.140413 0.0672379 0.805171 
0.142123 0.0672151 0.806171 
0.143552 0.0672151 0.806171 
0.145268 0.0671922 0.807171 
0.146988 0.0671693 0.808171 
0.148712 0.0671465 0.809171 
0.150146 0.0671465 0.809171 
0.151876 0.0671236 0.810171 
0.153609 0.0671008 0.811171 
0.155346 0.0670779 0.812171 
0.156786 0.0670779 0.812171 
0.158529 0.0670551 0.813171 
0.160276 0.0670322 0.814171 
-0.282734 0.0688113 0.798171 
-0.28132 0.0688113 0.798171 
-0.279907 0.0688113 0.798171 
-0.278774 0.0687903 0.799171 
-0.277637 0.0687693 0.800171 
-0.276219 0.0687693 0.800171 
-0.274802 0.0687693 0.800171 
-0.273385 0.0687693 0.800171 
-0.281705 0.0680151 0.836171 
-0.279682 0.068057 0.834171 
-0.277667 0.0680989 0.832171 
-0.276189 0.0680989 0.832171 
-0.274711 0.0680989 0.832171 
-0.273494 0.0680779 0.833171 
-0.272014 0.0680779 0.833171 
-0.270534 0.0680779 0.833171 
-0.269054 0.0680779 0.833171 
-0.267574 0.0680779 0.833171 
-0.266094 0.0680779 0.833171 
-0.264614 0.0680779 0.833171 
-0.263134 0.0680779 0.833171 
-0.261408 0.0680989 0.832171 
-0.25993 0.0680989 0.832171 
-0.258452 0.0680989 0.832171 
-0.256974 0.0680989 0.832171 
-0.255496 0.0680989 0.832171 
-0.254018 0.0680989 0.832171 
-0.252539 0.0680989 0.832171 
-0.251061 0.0680989 0.832171 
-0.249583 0.0680989 0.832171 
-0.248105 0.0680989 0.832171 
-0.246627 0.0680989 0.832171 
-0.245149 0.0680989 0.832171 
-0.243448 0.0681198 0.831171 
-0.241972 0.0681198 0.831171 
-0.240496 0.0681198 0.831171 
-0.239019 0.0681198 0.831171 
-0.237543 0.0681198 0.831171 
-0.236067 0.0681198 0.831171 
-0.234591 0.0681198 0.831171 
-0.233115 0.0681198 0.831171 
-0.231639 0.0681198 0.831171 
-0.230162 0.0681198 0.831171 
-0.228482 0.0681408 0.830171 
-0.227008 0.0681408 0.830171 
-0.225534 0.0681408 0.830171 
-0.224059 0.0681408 0.830171 
-0.222585 0.0681408 0.830171 
-0.221111 0.0681408 0.830171 
-0.219637 0.0681408 0.830171 
-0.217972 0.0681617 0.829171 
-0.216499 0.0681617 0.829171 
-0.215027 0.0681617 0.829171 
-0.213555 0.0681617 0.829171 
-0.212082 0.0681617 0.829171 
-0.21061 0.0681617 0.829171 
-0.209138 0.0681617 0.829171 
-0.207665 0.0681617 0.829171 
-0.206193 0.0681617 0.829171 
-0.204547 0.0681827 0.828171 
-0.203077 0.0681827 0.828171 
-0.201606 0.0681827 0.828171 
-0.200136 0.0681827 0.828171 
-0.198831 0.0681617 0.829171 
-0.197359 0.0681617 0.829171 
-0.195886 0.0681617 0.829171 
-0.194574 0.0681408 0.830171 
-0.193258 0.0681198 0.831171 
-0.191781 0.0681198 0.831171 
-0.190459 0.0680989 0.832171 
-0.189134 0.0680779 0.833171 
-0.127191 0.0680151 0.836171 
-0.125705 0.0680151 0.836171 
-0.124699 0.0678684 0.843171 
-0.1234 0.0678055 0.846171 
-0.12196 0.0677846 0.847171 
-0.120454 0.0677846 0.847171 
-0.118947 0.0677846 0.847171 
-0.11744 0.0677846 0.847171 
-0.115934 0.0677846 0.847171 
-0.114427 0.0677846 0.847171 
-0.11292 0.0677846 0.847171 
-0.111414 0.0677846 0.847171 
-0.109362 0.0680151 0.836171 
-0.107877 0.0680151 0.836171 
-0.106848 0.0678055 0.846171 
-0.0605204 0.0683084 0.822171 
-0.0590766 0.0683293 0.821171 
-0.0576366 0.0683503 0.820171 
-0.0562004 0.0683713 0.819171 
-0.054768 0.0683922 0.818171 
-0.0533395 0.0684132 0.817171 
-0.0519147 0.0684341 0.816171 
-0.0504937 0.0684551 0.815171 
-0.0490766 0.068476 0.814171 
-0.0476633 0.068497 0.813171 
-0.0462214 0.068497 0.813171 
-0.0448137 0.0685179 0.812171 
-0.0433737 0.0685179 0.812171 
-0.0419337 0.0685179 0.812171 
-0.0404937 0.0685179 0.812171 
-0.0390537 0.0685179 0.812171 
-0.0376137 0.0685179 0.812171 
-0.0361737 0.0685179 0.812171 
-0.0347337 0.0685179 0.812171 
-0.0332937 0.0685179 0.812171 
-0.0318537 0.0685179 0.812171 
-0.0303604 0.068497 0.813171 
-0.0289185 0.068497 0.813171 
-0.0274766 0.068497 0.813171 
-0.0260347 0.068497 0.813171 
-0.0245928 0.068497 0.813171 
-0.0231509 0.068497 0.813171 
-0.021709 0.068497 0.813171 
-0.0202671 0.068497 0.813171 
-0.0188252 0.068497 0.813171 
-0.0173833 0.068497 0.813171 
-0.0159414 0.068497 0.813171 
-0.0144252 0.068476 0.814171 
-0.0129814 0.068476 0.814171 
-0.0113814 0.0684341 0.816171 
-0.00977374 0.0683922 0.818171 
-0.00824041 0.0683713 0.819171 
-0.00670326 0.0683503 0.820171 
0.066971 0.0684132 0.817171 
0.0682377 0.0684341 0.816171 
0.0696853 0.0684341 0.816171 
0.0709463 0.0684551 0.815171 
0.0722034 0.068476 0.814171 
0.0734567 0.068497 0.813171 
0.0748986 0.068497 0.813171 
0.0761463 0.0685179 0.812171 
0.0773901 0.0685389 0.811171 
0.0788282 0.0685389 0.811171 
0.0800663 0.0685598 0.810171 
0.0813005 0.0685808 0.809171 
0.0827348 0.0685808 0.809171 
0.0839634 0.0686017 0.808171 
0.0851882 0.0686227 0.807171 
0.0866186 0.0686227 0.807171 
0.0878377 0.0686436 0.806171 
0.0890529 0.0686646 0.805171 
0.0904796 0.0686646 0.805171 
0.0916891 0.0686855 0.804171 
0.0928948 0.0687065 0.803171 
0.0943177 0.0687065 0.803171 
0.0955177 0.0687274 0.802171 
0.0967139 0.0687484 0.801171 
0.0981329 0.0687484 0.801171 
0.0993234 0.0687693 0.800171 
0.10051 0.0687903 0.799171 
0.101925 0.0687903 0.799171 
0.103106 0.0688113 0.798171 
0.104283 0.0688322 0.797171 
0.105695 0.0688322 0.797171 
0.106866 0.0688532 0.796171 
0.108034 0.0688741 0.795171 
0.109198 0.0688951 0.794171 
0.110112 0.068937 0.792171 
0.111019 0.0689789 0.790171 
0.112167 0.0689998 0.789171 
0.113563 0.0689998 0.789171 
0.115973 0.068916 0.793171 
0.117632 0.0688951 0.794171 
0.119552 0.0688532 0.796171 
0.120962 0.0688532 0.796171 
0.122632 0.0688322 0.797171 
0.124306 0.0688113 0.798171 
0.125984 0.0687903 0.799171 
0.1274 0.0687903 0.799171 
0.129083 0.0687693 0.800171 
0.130771 0.0687484 0.801171 
0.132462 0.0687274 0.802171 
0.133883 0.0687274 0.802171 
0.135581 0.0687065 0.803171 
0.137282 0.0686855 0.804171 
0.138986 0.0686646 0.805171 
0.140413 0.0686646 0.805171 
0.142123 0.0686436 0.806171 
0.143838 0.0686227 0.807171 
0.145556 0.0686017 0.808171 
0.146988 0.0686017 0.808171 
0.148712 0.0685808 0.809171 
0.15044 0.0685598 0.810171 
0.152171 0.0685389 0.811171 
0.153609 0.0685389 0.811171 
0.155346 0.0685179 0.812171 
0.157087 0.068497 0.813171 
0.158832 0.068476 0.814171 
0.160276 0.068476 0.814171 
-0.282734 0.0702246 0.798171 
-0.28132 0.0702246 0.798171 
-0.279625 0.0702436 0.797171 
-0.278494 0.0702246 0.798171 
-0.277359 0.0702055 0.799171 
-0.275943 0.0702055 0.799171 
-0.274528 0.0702055 0.799171 
-0.273113 0.0702055 0.799171 
-0.271698 0.0702055 0.799171 
-0.270282 0.0702055 0.799171 
-0.268867 0.0702055 0.799171 
-0.267452 0.0702055 0.799171 
-0.266037 0.0702055 0.799171 
-0.264621 0.0702055 0.799171 
-0.263206 0.0702055 0.799171 
-0.261791 0.0702055 0.799171 
-0.260376 0.0702055 0.799171 
-0.26732 0.069577 0.832171 
-0.265842 0.069577 0.832171 
-0.264364 0.069577 0.832171 
-0.262886 0.069577 0.832171 
-0.261408 0.069577 0.832171 
-0.25993 0.069577 0.832171 
-0.258452 0.069577 0.832171 
-0.256974 0.069577 0.832171 
-0.255496 0.069577 0.832171 
-0.254018 0.069577 0.832171 
-0.252305 0.069596 0.831171 
-0.250829 0.069596 0.831171 
-0.249353 0.069596 0.831171 
-0.247877 0.069596 0.831171 
-0.2464 0.069596 0.831171 
-0.244924 0.069596 0.831171 
-0.243448 0.069596 0.831171 
-0.241972 0.069596 0.831171 
-0.240496 0.069596 0.831171 
-0.238802 0.0696151 0.830171 
-0.237328 0.0696151 0.830171 
-0.235854 0.0696151 0.830171 
-0.234379 0.0696151 0.830171 
-0.232905 0.0696151 0.830171 
-0.231431 0.0696151 0.830171 
-0.229957 0.0696151 0.830171 
-0.228482 0.0696151 0.830171 
-0.227008 0.0696151 0.830171 
-0.225534 0.0696151 0.830171 
-0.223861 0.0696341 0.829171 
-0.222389 0.0696341 0.829171 
-0.220917 0.0696341 0.829171 
-0.219444 0.0696341 0.829171 
-0.217972 0.0696341 0.829171 
-0.216499 0.0696341 0.829171 
-0.215027 0.0696341 0.829171 
-0.213555 0.0696341 0.829171 
-0.211899 0.0696532 0.828171 
-0.210429 0.0696532 0.828171 
-0.208959 0.0696532 0.828171 
-0.207488 0.0696532 0.828171 
-0.206018 0.0696532 0.828171 
-0.204547 0.0696532 0.828171 
-0.203077 0.0696532 0.828171 
-0.201606 0.0696532 0.828171 
-0.200136 0.0696532 0.828171 
-0.198665 0.0696532 0.828171 
-0.197359 0.0696341 0.829171 
-0.195886 0.0696341 0.829171 
-0.194574 0.0696151 0.830171 
-0.193258 0.069596 0.831171 
-0.191938 0.069577 0.832171 
-0.190459 0.069577 0.832171 
-0.189134 0.0695579 0.833171 
-0.127191 0.0695008 0.836171 
-0.125776 0.0694817 0.837171 
-0.124837 0.0693293 0.845171 
-0.1234 0.0693103 0.846171 
-0.12196 0.0692912 0.847171 
-0.120454 0.0692912 0.847171 
-0.118947 0.0692912 0.847171 
-0.11744 0.0692912 0.847171 
-0.115934 0.0692912 0.847171 
-0.114427 0.0692912 0.847171 
-0.11292 0.0692912 0.847171 
-0.111414 0.0692912 0.847171 
-0.109362 0.0695008 0.836171 
-0.107924 0.0694817 0.837171 
-0.106894 0.0692912 0.847171 
-0.0590614 0.0697674 0.822171 
-0.0576195 0.0697865 0.821171 
-0.0561814 0.0698055 0.820171 
-0.0547471 0.0698246 0.819171 
-0.0533166 0.0698436 0.818171 
-0.0518899 0.0698627 0.817171 
-0.0504671 0.0698817 0.816171 
-0.049048 0.0699008 0.815171 
-0.0476328 0.0699198 0.814171 
-0.046189 0.0699198 0.814171 
-0.0447795 0.0699389 0.813171 
-0.0433376 0.0699389 0.813171 
-0.0418956 0.0699389 0.813171 
-0.0404537 0.0699389 0.813171 
-0.0390118 0.0699389 0.813171 
-0.0375699 0.0699389 0.813171 
-0.0360823 0.0699198 0.814171 
-0.0346385 0.0699198 0.814171 
-0.0331947 0.0699198 0.814171 
-0.0317509 0.0699198 0.814171 
-0.0303071 0.0699198 0.814171 
-0.0288633 0.0699198 0.814171 
-0.0273623 0.0699008 0.815171 
-0.0259166 0.0699008 0.815171 
-0.0244709 0.0699008 0.815171 
-0.0230252 0.0699008 0.815171 
-0.0215794 0.0699008 0.815171 
-0.0201337 0.0699008 0.815171 
-0.018688 0.0699008 0.815171 
-0.0172423 0.0699008 0.815171 
-0.015869 0.0699198 0.814171 
-0.0144252 0.0699198 0.814171 
-0.0129052 0.0699008 0.815171 
-0.0113814 0.0698817 0.816171 
-0.00977374 0.0698436 0.818171 
-0.00824041 0.0698246 0.819171 
-0.00661945 0.0697865 0.821171 
0.067152 0.0698436 0.818171 
0.0684205 0.0698627 0.817171 
0.0696853 0.0698817 0.816171 
0.0709463 0.0699008 0.815171 
0.0722034 0.0699198 0.814171 
0.0736472 0.0699198 0.814171 
0.0748986 0.0699389 0.813171 
0.0761463 0.0699579 0.812171 
0.0775863 0.0699579 0.812171 
0.0788282 0.069977 0.811171 
0.0800663 0.069996 0.810171 
0.0815025 0.069996 0.810171 
0.0827348 0.0700151 0.809171 
0.0839634 0.0700341 0.808171 
0.0853958 0.0700341 0.808171 
0.0866186 0.0700532 0.807171 
0.0878377 0.0700722 0.806171 
0.0892663 0.0700722 0.806171 
0.0904796 0.0700912 0.805171 
0.0916891 0.0701103 0.804171 
0.0928948 0.0701293 0.803171 
0.0943177 0.0701293 0.803171 
0.0955177 0.0701484 0.802171 
0.0967139 0.0701674 0.801171 
0.0981329 0.0701674 0.801171 
0.0993234 0.0701865 0.800171 
0.10051 0.0702055 0.799171 
0.101925 0.0702055 0.799171 
0.103106 0.0702246 0.798171 
0.104283 0.0702436 0.797171 
0.105695 0.0702436 0.797171 
0.106866 0.0702627 0.796171 
0.108034 0.0702817 0.795171 
0.109198 0.0703008 0.794171 
0.110112 0.0703389 0.792171 
0.111019 0.070377 0.790171 
0.112167 0.070396 0.789171 
0.113815 0.070377 0.790171 
0.115973 0.0703198 0.793171 
0.117887 0.0702817 0.795171 
0.119552 0.0702627 0.796171 
0.121221 0.0702436 0.797171 
0.122632 0.0702436 0.797171 
0.124306 0.0702246 0.798171 
0.125984 0.0702055 0.799171 
0.127666 0.0701865 0.800171 
0.129083 0.0701865 0.800171 
0.130771 0.0701674 0.801171 
0.132462 0.0701484 0.802171 
0.134158 0.0701293 0.803171 
0.135581 0.0701293 0.803171 
0.137282 0.0701103 0.804171 
0.138986 0.0700912 0.805171 
0.140695 0.0700722 0.806171 
0.142407 0.0700532 0.807171 
0.143838 0.0700532 0.807171 
0.145556 0.0700341 0.808171 
0.147278 0.0700151 0.809171 
0.149003 0.069996 0.810171 
0.15044 0.069996 0.810171 
0.152171 0.069977 0.811171 
0.153906 0.0699579 0.812171 
0.155346 0.0699579 0.812171 
0.157087 0.0699389 0.813171 
0.158832 0.0699198 0.814171 
0.160581 0.0699008 0.815171 
-0.282734 0.0716379 0.798171 
-0.28132 0.0716379 0.798171 
-0.279625 0.0716551 0.797171 
-0.278214 0.0716551 0.797171 
-0.27708 0.0716379 0.798171 
-0.275667 0.0716379 0.798171 
-0.274528 0.0716208 0.799171 
-0.273113 0.0716208 0.799171 
-0.271698 0.0716208 0.799171 
-0.270014 0.0716379 0.798171 
-0.2686 0.0716379 0.798171 
-0.267187 0.0716379 0.798171 
-0.265774 0.0716379 0.798171 
-0.26436 0.0716379 0.798171 
-0.262947 0.0716379 0.798171 
-0.261534 0.0716379 0.798171 
-0.26012 0.0716379 0.798171 
-0.258707 0.0716379 0.798171 
-0.257294 0.0716379 0.798171 
-0.25588 0.0716379 0.798171 
-0.254467 0.0716379 0.798171 
-0.253054 0.0716379 0.798171 
-0.25164 0.0716379 0.798171 
-0.250227 0.0716379 0.798171 
-0.248814 0.0716379 0.798171 
-0.2474 0.0716379 0.798171 
-0.245987 0.0716379 0.798171 
-0.252305 0.0710722 0.831171 
-0.250829 0.0710722 0.831171 
-0.249353 0.0710722 0.831171 
-0.247877 0.0710722 0.831171 
-0.2464 0.0710722 0.831171 
-0.244699 0.0710893 0.830171 
-0.243225 0.0710893 0.830171 
-0.241751 0.0710893 0.830171 
-0.240277 0.0710893 0.830171 
-0.238802 0.0710893 0.830171 
-0.237328 0.0710893 0.830171 
-0.235854 0.0710893 0.830171 
-0.234379 0.0710893 0.830171 
-0.232905 0.0710893 0.830171 
-0.231223 0.0711065 0.829171 
-0.229751 0.0711065 0.829171 
-0.228279 0.0711065 0.829171 
-0.226806 0.0711065 0.829171 
-0.225334 0.0711065 0.829171 
-0.223861 0.0711065 0.829171 
-0.222389 0.0711065 0.829171 
-0.220917 0.0711065 0.829171 
-0.219444 0.0711065 0.829171 
-0.217781 0.0711236 0.828171 
-0.216311 0.0711236 0.828171 
-0.21484 0.0711236 0.828171 
-0.21337 0.0711236 0.828171 
-0.211899 0.0711236 0.828171 
-0.210429 0.0711236 0.828171 
-0.208959 0.0711236 0.828171 
-0.207488 0.0711236 0.828171 
-0.205842 0.0711408 0.827171 
-0.204374 0.0711408 0.827171 
-0.202905 0.0711408 0.827171 
-0.201437 0.0711408 0.827171 
-0.199968 0.0711408 0.827171 
-0.198665 0.0711236 0.828171 
-0.197359 0.0711065 0.829171 
-0.196048 0.0710893 0.830171 
-0.194574 0.0710893 0.830171 
-0.193258 0.0710722 0.831171 
-0.191938 0.0710551 0.832171 
-0.190614 0.0710379 0.833171 
-0.189286 0.0710208 0.834171 
-0.127263 0.0709693 0.837171 
-0.125776 0.0709693 0.837171 
-0.124425 0.0709351 0.839171 
-0.1234 0.0708151 0.846171 
-0.12196 0.0707979 0.847171 
-0.120454 0.0707979 0.847171 
-0.118947 0.0707979 0.847171 
-0.11744 0.0707979 0.847171 
-0.115934 0.0707979 0.847171 
-0.114427 0.0707979 0.847171 
-0.11292 0.0707979 0.847171 
-0.111414 0.0707979 0.847171 
-0.109412 0.0709693 0.837171 
-0.107972 0.0709522 0.838171 
-0.106939 0.0707808 0.848171 
-0.0576023 0.0712265 0.822171 
-0.0561623 0.0712436 0.821171 
-0.0547261 0.0712608 0.820171 
-0.0532937 0.0712779 0.819171 
-0.0518652 0.0712951 0.818171 
-0.0504404 0.0713122 0.817171 
-0.0490195 0.0713293 0.816171 
-0.0476023 0.0713465 0.815171 
-0.0461566 0.0713465 0.815171 
-0.0447452 0.0713636 0.814171 
-0.0433014 0.0713636 0.814171 
-0.0418195 0.0713465 0.815171 
-0.0403737 0.0713465 0.815171 
-0.038928 0.0713465 0.815171 
-0.0374823 0.0713465 0.815171 
-0.0360366 0.0713465 0.815171 
-0.0345909 0.0713465 0.815171 
-0.0330956 0.0713293 0.816171 
-0.031648 0.0713293 0.816171 
-0.0302004 0.0713293 0.816171 
-0.0287528 0.0713293 0.816171 
-0.0273052 0.0713293 0.816171 
-0.0258575 0.0713293 0.816171 
-0.024349 0.0713122 0.817171 
-0.0228995 0.0713122 0.817171 
-0.0214499 0.0713122 0.817171 
-0.0200004 0.0713122 0.817171 
-0.0185509 0.0713122 0.817171 
-0.0171014 0.0713122 0.817171 
-0.0157242 0.0713293 0.816171 
-0.0143509 0.0713465 0.815171 
-0.0129052 0.0713465 0.815171 
-0.0113814 0.0713293 0.816171 
-0.00977374 0.0712951 0.818171 
-0.0081585 0.0712608 0.820171 
-0.00661945 0.0712436 0.821171 
0.067152 0.0712951 0.818171 
0.0684205 0.0713122 0.817171 
0.0696853 0.0713293 0.816171 
0.0711329 0.0713293 0.816171 
0.072392 0.0713465 0.815171 
0.0736472 0.0713636 0.814171 
0.0748986 0.0713808 0.813171 
0.0763405 0.0713808 0.813171 
0.0775863 0.0713979 0.812171 
0.0788282 0.0714151 0.811171 
0.0800663 0.0714322 0.810171 
0.0815025 0.0714322 0.810171 
0.0827348 0.0714493 0.809171 
0.0839634 0.0714665 0.808171 
0.0853958 0.0714665 0.808171 
0.0866186 0.0714836 0.807171 
0.0878377 0.0715008 0.806171 
0.0892663 0.0715008 0.806171 
0.0904796 0.0715179 0.805171 
0.0916891 0.0715351 0.804171 
0.0928948 0.0715522 0.803171 
0.0943177 0.0715522 0.803171 
0.0955177 0.0715693 0.802171 
0.0967139 0.0715865 0.801171 
0.0981329 0.0715865 0.801171 
0.0993234 0.0716036 0.800171 
0.100741 0.0716036 0.800171 
0.101925 0.0716208 0.799171 
0.103106 0.0716379 0.798171 
0.10452 0.0716379 0.798171 
0.105695 0.0716551 0.797171 
0.106866 0.0716722 0.796171 
0.108034 0.0716893 0.795171 
0.109198 0.0717065 0.794171 
0.110112 0.0717408 0.792171 
0.111266 0.0717579 0.791171 
0.112417 0.0717751 0.790171 
0.113815 0.0717751 0.790171 
0.116226 0.0717065 0.794171 
0.117887 0.0716893 0.795171 
0.119552 0.0716722 0.796171 
0.121221 0.0716551 0.797171 
0.122893 0.0716379 0.798171 
0.124306 0.0716379 0.798171 
0.125984 0.0716208 0.799171 
0.127666 0.0716036 0.800171 
0.129352 0.0715865 0.801171 
0.130771 0.0715865 0.801171 
0.132462 0.0715693 0.802171 
0.134158 0.0715522 0.803171 
0.135857 0.0715351 0.804171 
0.13756 0.0715179 0.805171 
0.138986 0.0715179 0.805171 
0.140695 0.0715008 0.806171 
0.142407 0.0714836 0.807171 
0.144123 0.0714665 0.808171 
0.145556 0.0714665 0.808171 
0.147278 0.0714493 0.809171 
0.149003 0.0714322 0.810171 
0.150733 0.0714151 0.811171 
0.152171 0.0714151 0.811171 
0.153906 0.0713979 0.812171 
0.155645 0.0713808 0.813171 
0.157388 0.0713636 0.814171 
0.158832 0.0713636 0.814171 
0.160581 0.0713465 0.815171 
-0.282734 0.0730513 0.798171 
-0.28132 0.0730513 0.798171 
-0.279625 0.0730665 0.797171 
-0.277934 0.0730817 0.796171 
-0.276802 0.0730665 0.797171 
-0.275391 0.0730665 0.797171 
-0.274254 0.0730513 0.798171 
-0.27284 0.0730513 0.798171 
-0.271427 0.0730513 0.798171 
-0.270014 0.0730513 0.798171 
-0.2686 0.0730513 0.798171 
-0.267187 0.0730513 0.798171 
-0.265774 0.0730513 0.798171 
-0.26436 0.0730513 0.798171 
-0.262947 0.0730513 0.798171 
-0.261534 0.0730513 0.798171 
-0.26012 0.0730513 0.798171 
-0.258707 0.0730513 0.798171 
-0.257294 0.0730513 0.798171 
-0.25588 0.0730513 0.798171 
-0.254219 0.0730665 0.797171 
-0.252808 0.0730665 0.797171 
-0.251397 0.0730665 0.797171 
-0.249985 0.0730665 0.797171 
-0.248574 0.0730665 0.797171 
-0.247162 0.0730665 0.797171 
-0.245751 0.0730665 0.797171 
-0.244339 0.0730665 0.797171 
-0.242928 0.0730665 0.797171 
-0.241517 0.0730665 0.797171 
-0.240105 0.0730665 0.797171 
-0.238694 0.0730665 0.797171 
-0.237282 0.0730665 0.797171 
-0.235871 0.0730665 0.797171 
-0.234459 0.0730665 0.797171 
-0.233048 0.0730665 0.797171 
-0.231854 0.0730513 0.798171 
-0.23044 0.0730513 0.798171 
-0.229027 0.0730513 0.798171 
-0.234168 0.0725789 0.829171 
-0.232696 0.0725789 0.829171 
-0.231223 0.0725789 0.829171 
-0.229751 0.0725789 0.829171 
-0.228279 0.0725789 0.829171 
-0.226806 0.0725789 0.829171 
-0.225134 0.0725941 0.828171 
-0.223663 0.0725941 0.828171 
-0.222193 0.0725941 0.828171 
-0.220722 0.0725941 0.828171 
-0.219252 0.0725941 0.828171 
-0.217781 0.0725941 0.828171 
-0.216311 0.0725941 0.828171 
-0.21484 0.0725941 0.828171 
-0.213185 0.0726093 0.827171 
-0.211717 0.0726093 0.827171 
-0.210248 0.0726093 0.827171 
-0.208779 0.0726093 0.827171 
-0.201642 0.073097 0.795171 
-0.205842 0.0726093 0.827171 
-0.204374 0.0726093 0.827171 
-0.202905 0.0726093 0.827171 
-0.201437 0.0726093 0.827171 
-0.199968 0.0726093 0.827171 
-0.198665 0.0725941 0.828171 
-0.197359 0.0725789 0.829171 
-0.196048 0.0725636 0.830171 
-0.194734 0.0725484 0.831171 
-0.193258 0.0725484 0.831171 
-0.191938 0.0725332 0.832171 
-0.190614 0.0725179 0.833171 
-0.189286 0.0725027 0.834171 
-0.127263 0.072457 0.837171 
-0.125846 0.0724417 0.838171 
-0.124494 0.0724113 0.840171 
-0.1234 0.0723198 0.846171 
-0.12196 0.0723046 0.847171 
-0.120454 0.0723046 0.847171 
-0.118947 0.0723046 0.847171 
-0.11744 0.0723046 0.847171 
-0.115934 0.0723046 0.847171 
-0.114427 0.0723046 0.847171 
-0.11292 0.0723046 0.847171 
-0.111414 0.0723046 0.847171 
-0.109461 0.0724417 0.838171 
-0.107972 0.0724417 0.838171 
-0.106985 0.0722741 0.849171 
-0.0575852 0.0726703 0.823171 
-0.0561433 0.0726855 0.822171 
-0.0547052 0.0727008 0.821171 
-0.0532709 0.072716 0.820171 
-0.0518404 0.0727312 0.819171 
-0.0504137 0.0727465 0.818171 
-0.0489909 0.0727617 0.817171 
-0.0475718 0.072777 0.816171 
-0.0461242 0.072777 0.816171 
-0.0446766 0.072777 0.816171 
-0.043229 0.072777 0.816171 
-0.0417814 0.072777 0.816171 
-0.0403337 0.072777 0.816171 
-0.0388442 0.0727617 0.817171 
-0.0373947 0.0727617 0.817171 
-0.0359452 0.0727617 0.817171 
-0.0344956 0.0727617 0.817171 
-0.0330461 0.0727617 0.817171 
-0.0315452 0.0727465 0.818171 
-0.0300937 0.0727465 0.818171 
-0.0286423 0.0727465 0.818171 
-0.0271909 0.0727465 0.818171 
-0.0257395 0.0727465 0.818171 
-0.024288 0.0727465 0.818171 
-0.0228366 0.0727465 0.818171 
-0.0213204 0.0727312 0.819171 
-0.0198671 0.0727312 0.819171 
-0.0184137 0.0727312 0.819171 
-0.0169604 0.0727312 0.819171 
-0.0155795 0.0727465 0.818171 
-0.0142023 0.0727617 0.817171 
-0.012829 0.072777 0.816171 
-0.0114595 0.0727922 0.815171 
-0.00985374 0.0727617 0.817171 
-0.0081585 0.072716 0.820171 
0.0673329 0.0727312 0.819171 
0.0686034 0.0727465 0.818171 
0.0698701 0.0727617 0.817171 
0.0711329 0.072777 0.816171 
0.072392 0.0727922 0.815171 
0.0736472 0.0728074 0.814171 
0.0748986 0.0728227 0.813171 
0.0763405 0.0728227 0.813171 
0.0775863 0.0728379 0.812171 
0.0788282 0.0728532 0.811171 
0.0802663 0.0728532 0.811171 
0.0815025 0.0728684 0.810171 
0.0827348 0.0728836 0.809171 
0.0839634 0.0728989 0.808171 
0.0853958 0.0728989 0.808171 
0.0866186 0.0729141 0.807171 
0.0878377 0.0729293 0.806171 
0.0890529 0.0729446 0.805171 
0.0904796 0.0729446 0.805171 
0.0916891 0.0729598 0.804171 
0.0928948 0.0729751 0.803171 
0.0940968 0.0729903 0.802171 
0.0955177 0.0729903 0.802171 
0.0967139 0.0730055 0.801171 
0.0981329 0.0730055 0.801171 
0.0993234 0.0730208 0.800171 
0.10051 0.073036 0.799171 
0.101925 0.073036 0.799171 
0.103106 0.0730513 0.798171 
0.10452 0.0730513 0.798171 
0.105695 0.0730665 0.797171 
0.106866 0.0730817 0.796171 
0.108034 0.073097 0.795171 
0.109198 0.0731122 0.794171 
0.110112 0.0731427 0.792171 
0.111266 0.0731579 0.791171 
0.112417 0.0731732 0.790171 
0.113815 0.0731732 0.790171 
0.116226 0.0731122 0.794171 
0.118142 0.0730817 0.796171 
0.119552 0.0730817 0.796171 
0.121221 0.0730665 0.797171 
0.122893 0.0730513 0.798171 
0.124569 0.073036 0.799171 
0.125984 0.073036 0.799171 
0.127666 0.0730208 0.800171 
0.129352 0.0730055 0.801171 
0.131042 0.0729903 0.802171 
0.132462 0.0729903 0.802171 
0.134158 0.0729751 0.803171 
0.135857 0.0729598 0.804171 
0.13756 0.0729446 0.805171 
0.139266 0.0729293 0.806171 
0.140977 0.0729141 0.807171 
0.142407 0.0729141 0.807171 
0.144123 0.0728989 0.808171 
0.145843 0.0728836 0.809171 
0.147567 0.0728684 0.810171 
0.149003 0.0728684 0.810171 
0.150733 0.0728532 0.811171 
0.152466 0.0728379 0.812171 
0.153906 0.0728379 0.812171 
0.155645 0.0728227 0.813171 
0.157388 0.0728074 0.814171 
0.159135 0.0727922 0.815171 
0.160885 0.072777 0.816171 
-0.283019 0.0744513 0.799171 
