-0.295611 0.100303 0.786 
-0.294089 0.100303 0.786 
-0.292567 0.100303 0.786 
-0.290304 0.100047 0.784 
-0.288418 0.0999199 0.783 
-0.286902 0.0999199 0.783 
-0.285385 0.0999199 0.783 
-0.283144 0.0996646 0.781 
-0.281632 0.0996646 0.781 
-0.280119 0.0996646 0.781 
-0.278607 0.0996646 0.781 
-0.277095 0.0996646 0.781 
-0.274877 0.0994094 0.779 
-0.273368 0.0994094 0.779 
-0.272558 0.0996646 0.781 
-0.271046 0.0996646 0.781 
-0.269533 0.0996646 0.781 
-0.268021 0.0996646 0.781 
-0.266509 0.0996646 0.781 
-0.264996 0.0996646 0.781 
-0.263484 0.0996646 0.781 
-0.261972 0.0996646 0.781 
-0.252898 0.0996646 0.781 
-0.251385 0.0996646 0.781 
-0.249873 0.0996646 0.781 
-0.248361 0.0996646 0.781 
-0.246848 0.0996646 0.781 
-0.245336 0.0996646 0.781 
-0.244448 0.0999199 0.783 
-0.242312 0.0996646 0.781 
-0.240799 0.0996646 0.781 
-0.239287 0.0996646 0.781 
-0.237775 0.0996646 0.781 
-0.23475 0.0996646 0.781 
-0.233238 0.0996646 0.781 
-0.231725 0.0996646 0.781 
-0.230213 0.0996646 0.781 
-0.228701 0.0996646 0.781 
-0.227188 0.0996646 0.781 
-0.225676 0.0996646 0.781 
-0.224164 0.0996646 0.781 
-0.222651 0.0996646 0.781 
-0.221705 0.0999199 0.783 
-0.220189 0.0999199 0.783 
-0.218952 0.100047 0.784 
-0.217434 0.100047 0.784 
-0.216467 0.100303 0.786 
-0.214945 0.100303 0.786 
-0.213423 0.100303 0.786 
-0.21244 0.100558 0.788 
-0.210914 0.100558 0.788 
-0.209388 0.100558 0.788 
-0.206807 0.100047 0.784 
-0.213648 0.104897 0.822 
-0.212572 0.105152 0.824 
-0.211489 0.105407 0.826 
-0.209889 0.105407 0.826 
-0.20829 0.105407 0.826 
-0.207191 0.105662 0.828 
-0.205587 0.105662 0.828 
-0.203984 0.105662 0.828 
-0.202381 0.105662 0.828 
-0.200777 0.105662 0.828 
-0.199174 0.105662 0.828 
-0.132201 0.108597 0.851 
-0.130553 0.108597 0.851 
-0.128905 0.108597 0.851 
-0.127257 0.108597 0.851 
-0.125609 0.108597 0.851 
-0.123961 0.108597 0.851 
-0.122601 0.108853 0.853 
-0.120949 0.108853 0.853 
-0.119018 0.108597 0.851 
-0.11737 0.108597 0.851 
-0.115722 0.108597 0.851 
-0.114074 0.108597 0.851 
0.122639 0.108087 0.847 
0.123985 0.107832 0.845 
0.125621 0.107832 0.845 
0.127258 0.107832 0.845 
0.128894 0.107832 0.845 
0.130067 0.107449 0.842 
0.131697 0.107449 0.842 
0.133328 0.107449 0.842 
0.134958 0.107449 0.842 
0.136264 0.107194 0.84 
0.138219 0.107449 0.842 
0.139849 0.107449 0.842 
0.141984 0.107832 0.845 
0.14311 0.107449 0.842 
0.144397 0.107194 0.84 
-0.295611 0.101827 0.786 
-0.292567 0.101827 0.786 
-0.290304 0.101568 0.784 
-0.288418 0.101439 0.783 
-0.286902 0.101439 0.783 
-0.285385 0.101439 0.783 
-0.283869 0.101439 0.783 
-0.281632 0.10118 0.781 
-0.280119 0.10118 0.781 
-0.277894 0.10092 0.779 
-0.277095 0.10118 0.781 
-0.274877 0.10092 0.779 
-0.273368 0.10092 0.779 
-0.272558 0.10118 0.781 
-0.271046 0.10118 0.781 
-0.269533 0.10118 0.781 
-0.267335 0.10092 0.779 
-0.265826 0.10092 0.779 
-0.263639 0.100661 0.777 
-0.262809 0.10092 0.779 
-0.25225 0.10092 0.779 
-0.250098 0.100661 0.777 
-0.248593 0.100661 0.777 
-0.247089 0.100661 0.777 
-0.245584 0.100661 0.777 
-0.244708 0.10092 0.779 
-0.243199 0.10092 0.779 
-0.241691 0.10092 0.779 
-0.240183 0.10092 0.779 
-0.238674 0.10092 0.779 
-0.234149 0.10092 0.779 
-0.23264 0.10092 0.779 
-0.231132 0.10092 0.779 
-0.229623 0.10092 0.779 
-0.228115 0.10092 0.779 
-0.226607 0.10092 0.779 
-0.225676 0.10118 0.781 
-0.224164 0.10118 0.781 
-0.222651 0.10118 0.781 
-0.221705 0.101439 0.783 
-0.220189 0.101439 0.783 
-0.218952 0.101568 0.784 
-0.217434 0.101568 0.784 
-0.216467 0.101827 0.786 
-0.215492 0.102086 0.788 
-0.213966 0.102086 0.788 
-0.21244 0.102086 0.788 
-0.210914 0.102086 0.788 
-0.208857 0.101827 0.786 
-0.206807 0.101568 0.784 
-0.216287 0.107009 0.826 
-0.214168 0.10675 0.824 
-0.212572 0.10675 0.824 
-0.211489 0.107009 0.826 
-0.209889 0.107009 0.826 
-0.20829 0.107009 0.826 
-0.207191 0.107268 0.828 
-0.205587 0.107268 0.828 
-0.203984 0.107268 0.828 
-0.202381 0.107268 0.828 
-0.200777 0.107268 0.828 
-0.199174 0.107268 0.828 
-0.132511 0.110507 0.853 
-0.13086 0.110507 0.853 
-0.128905 0.110248 0.851 
-0.127257 0.110248 0.851 
-0.125609 0.110248 0.851 
-0.124253 0.110507 0.853 
-0.122601 0.110507 0.853 
-0.120949 0.110507 0.853 
-0.119298 0.110507 0.853 
-0.11737 0.110248 0.851 
-0.115994 0.110507 0.853 
-0.114074 0.110248 0.851 
0.122639 0.10973 0.847 
0.123985 0.109471 0.845 
0.125621 0.109471 0.845 
0.127258 0.109471 0.845 
0.128894 0.109471 0.845 
0.130067 0.109082 0.842 
0.132166 0.109471 0.845 
0.133328 0.109082 0.842 
0.134958 0.109082 0.842 
0.136589 0.109082 0.842 
0.138219 0.109082 0.842 
0.140348 0.109471 0.845 
0.141984 0.109471 0.845 
0.14362 0.109471 0.845 
0.144741 0.109082 0.842 
-0.295611 0.103352 0.786 
-0.294089 0.103352 0.786 
-0.292567 0.103352 0.786 
-0.290304 0.103089 0.784 
-0.288418 0.102957 0.783 
-0.286902 0.102957 0.783 
-0.285385 0.102957 0.783 
-0.283869 0.102957 0.783 
-0.281632 0.102694 0.781 
-0.280119 0.102694 0.781 
-0.277894 0.102431 0.779 
-0.276385 0.102431 0.779 
-0.274877 0.102431 0.779 
-0.273368 0.102431 0.779 
-0.27186 0.102431 0.779 
-0.270351 0.102431 0.779 
-0.268843 0.102431 0.779 
-0.266648 0.102169 0.777 
-0.265144 0.102169 0.777 
-0.2633 0.102037 0.776 
-0.250631 0.101774 0.774 
-0.249776 0.102037 0.776 
-0.248593 0.102169 0.777 
-0.247089 0.102169 0.777 
-0.245584 0.102169 0.777 
-0.24408 0.102169 0.777 
-0.242575 0.102169 0.777 
-0.24107 0.102169 0.777 
-0.240183 0.102431 0.779 
-0.238674 0.102431 0.779 
-0.237166 0.102431 0.779 
-0.235657 0.102431 0.779 
-0.234149 0.102431 0.779 
-0.23264 0.102431 0.779 
-0.231132 0.102431 0.779 
-0.229623 0.102431 0.779 
-0.228115 0.102431 0.779 
-0.226607 0.102431 0.779 
-0.225676 0.102694 0.781 
-0.224164 0.102694 0.781 
-0.223222 0.102957 0.783 
-0.221705 0.102957 0.783 
-0.22047 0.103089 0.784 
-0.218952 0.103089 0.784 
-0.217434 0.103089 0.784 
-0.216467 0.103352 0.786 
-0.215492 0.103615 0.788 
-0.213966 0.103615 0.788 
-0.21244 0.103615 0.788 
-0.210914 0.103615 0.788 
-0.208857 0.103352 0.786 
-0.206807 0.103089 0.784 
-0.214168 0.108349 0.824 
-0.213088 0.108612 0.826 
-0.211489 0.108612 0.826 
-0.209889 0.108612 0.826 
-0.208794 0.108875 0.828 
-0.207191 0.108875 0.828 
-0.205587 0.108875 0.828 
-0.203984 0.108875 0.828 
-0.202381 0.108875 0.828 
-0.200777 0.108875 0.828 
-0.199174 0.108875 0.828 
-0.132511 0.112162 0.853 
-0.13086 0.112162 0.853 
-0.128905 0.111899 0.851 
-0.127556 0.112162 0.853 
-0.125904 0.112162 0.853 
-0.124253 0.112162 0.853 
-0.122601 0.112162 0.853 
-0.120949 0.112162 0.853 
-0.119298 0.112162 0.853 
-0.117646 0.112162 0.853 
-0.115994 0.112162 0.853 
-0.114342 0.112162 0.853 
-0.112691 0.112162 0.853 
0.121284 0.111636 0.849 
0.122639 0.111373 0.847 
0.123985 0.11111 0.845 
0.125621 0.11111 0.845 
0.127258 0.11111 0.845 
0.128894 0.11111 0.845 
0.130067 0.110715 0.842 
0.131697 0.110715 0.842 
0.133328 0.110715 0.842 
0.134958 0.110715 0.842 
0.136589 0.110715 0.842 
0.138219 0.110715 0.842 
0.140348 0.11111 0.845 
0.141984 0.11111 0.845 
0.14362 0.11111 0.845 
0.145256 0.11111 0.845 
0.147588 0.111636 0.849 
-0.296363 0.105143 0.788 
-0.294837 0.105143 0.788 
-0.292567 0.104877 0.786 
-0.290304 0.10461 0.784 
-0.288786 0.10461 0.784 
-0.286902 0.104476 0.783 
-0.285385 0.104476 0.783 
-0.283869 0.104476 0.783 
-0.281632 0.104209 0.781 
-0.280119 0.104209 0.781 
-0.277894 0.103943 0.779 
-0.276385 0.103943 0.779 
-0.274877 0.103943 0.779 
-0.272666 0.103676 0.777 
-0.27186 0.103943 0.779 
-0.270351 0.103943 0.779 
-0.268153 0.103676 0.777 
-0.266648 0.103676 0.777 
-0.264802 0.103542 0.776 
-0.251335 0.102341 0.767 
-0.24985 0.102341 0.767 
-0.249012 0.102608 0.769 
-0.247845 0.102742 0.77 
-0.247634 0.103275 0.774 
-0.246771 0.103542 0.776 
-0.245268 0.103542 0.776 
-0.24408 0.103676 0.777 
-0.242575 0.103676 0.777 
-0.24107 0.103676 0.777 
-0.239566 0.103676 0.777 
-0.238061 0.103676 0.777 
-0.236557 0.103676 0.777 
-0.235052 0.103676 0.777 
-0.233548 0.103676 0.777 
-0.232043 0.103676 0.777 
-0.231132 0.103943 0.779 
-0.229623 0.103943 0.779 
-0.228115 0.103943 0.779 
-0.226607 0.103943 0.779 
-0.225676 0.104209 0.781 
-0.224164 0.104209 0.781 
-0.223222 0.104476 0.783 
-0.221705 0.104476 0.783 
-0.22047 0.10461 0.784 
-0.218952 0.10461 0.784 
-0.217434 0.10461 0.784 
-0.216467 0.104877 0.786 
-0.215492 0.105143 0.788 
-0.213966 0.105143 0.788 
-0.212979 0.10541 0.79 
-0.21145 0.10541 0.79 
-0.209388 0.105143 0.788 
-0.207335 0.104877 0.786 
-0.214687 0.110214 0.826 
-0.213088 0.110214 0.826 
-0.212001 0.110481 0.828 
-0.209889 0.110214 0.826 
-0.208794 0.110481 0.828 
-0.207191 0.110481 0.828 
-0.206084 0.110747 0.83 
-0.203984 0.110481 0.828 
-0.202381 0.110481 0.828 
-0.200777 0.110481 0.828 
-0.199174 0.110481 0.828 
-0.13086 0.113816 0.853 
-0.128905 0.11355 0.851 
-0.127556 0.113816 0.853 
-0.125904 0.113816 0.853 
-0.124253 0.113816 0.853 
-0.122888 0.114083 0.855 
-0.121233 0.114083 0.855 
-0.119298 0.113816 0.853 
-0.117646 0.113816 0.853 
-0.115994 0.113816 0.853 
0.121284 0.113283 0.849 
0.122639 0.113016 0.847 
0.123985 0.112749 0.845 
0.125621 0.112749 0.845 
0.127258 0.112749 0.845 
0.128894 0.112749 0.845 
0.13053 0.112749 0.845 
0.131697 0.112349 0.842 
0.133328 0.112349 0.842 
0.134958 0.112349 0.842 
0.136589 0.112349 0.842 
0.138219 0.112349 0.842 
0.140348 0.112749 0.845 
0.141984 0.112749 0.845 
0.14362 0.112749 0.845 
0.145256 0.112749 0.845 
0.147588 0.113283 0.849 
-0.292567 0.106401 0.786 
-0.290304 0.10613 0.784 
-0.288786 0.10613 0.784 
-0.286902 0.105995 0.783 
-0.285385 0.105995 0.783 
-0.283869 0.105995 0.783 
-0.281632 0.105724 0.781 
-0.280119 0.105724 0.781 
-0.278607 0.105724 0.781 
-0.276385 0.105454 0.779 
-0.274171 0.105183 0.777 
-0.272666 0.105183 0.777 
-0.271162 0.105183 0.777 
-0.269657 0.105183 0.777 
-0.268153 0.105183 0.777 
-0.266648 0.105183 0.777 
-0.26412 0.104777 0.774 
-0.261264 0.104235 0.77 
-0.258761 0.103829 0.767 
-0.256605 0.103558 0.765 
-0.255123 0.103558 0.765 
-0.253642 0.103558 0.765 
-0.252161 0.103558 0.765 
-0.251335 0.103829 0.767 
-0.24985 0.103829 0.767 
-0.249012 0.1041 0.769 
-0.247845 0.104235 0.77 
-0.246994 0.104506 0.772 
-0.246135 0.104777 0.774 
-0.245268 0.105047 0.776 
-0.24408 0.105183 0.777 
-0.242575 0.105183 0.777 
-0.24107 0.105183 0.777 
-0.239566 0.105183 0.777 
-0.238061 0.105183 0.777 
-0.236557 0.105183 0.777 
-0.235052 0.105183 0.777 
-0.233548 0.105183 0.777 
-0.23264 0.105454 0.779 
-0.231132 0.105454 0.779 
-0.229623 0.105454 0.779 
-0.228115 0.105454 0.779 
-0.227188 0.105724 0.781 
-0.225676 0.105724 0.781 
-0.224164 0.105724 0.781 
-0.223222 0.105995 0.783 
-0.221705 0.105995 0.783 
-0.22047 0.10613 0.784 
-0.218952 0.10613 0.784 
-0.217434 0.10613 0.784 
-0.217018 0.106672 0.788 
-0.215492 0.106672 0.788 
-0.213966 0.106672 0.788 
-0.212979 0.106943 0.79 
-0.21145 0.106943 0.79 
-0.209388 0.106672 0.788 
-0.216811 0.112087 0.828 
-0.214687 0.111816 0.826 
-0.213604 0.112087 0.828 
-0.212001 0.112087 0.828 
-0.210397 0.112087 0.828 
-0.208794 0.112087 0.828 
-0.207191 0.112087 0.828 
-0.206084 0.112357 0.83 
-0.204477 0.112357 0.83 
-0.202381 0.112087 0.828 
-0.200777 0.112087 0.828 
-0.199174 0.112087 0.828 
-0.13086 0.115471 0.853 
-0.129208 0.115471 0.853 
-0.127556 0.115471 0.853 
-0.125904 0.115471 0.853 
-0.124544 0.115742 0.855 
-0.122888 0.115742 0.855 
-0.121233 0.115742 0.855 
-0.119298 0.115471 0.853 
-0.117646 0.115471 0.853 
-0.115994 0.115471 0.853 
0.121284 0.114929 0.849 
0.122639 0.114659 0.847 
0.123985 0.114388 0.845 
0.125621 0.114388 0.845 
0.127258 0.114388 0.845 
0.128894 0.114388 0.845 
0.130067 0.113982 0.842 
0.131697 0.113982 0.842 
0.133328 0.113982 0.842 
0.134958 0.113982 0.842 
0.136589 0.113982 0.842 
0.138219 0.113982 0.842 
0.140348 0.114388 0.845 
0.141984 0.114388 0.845 
0.14362 0.114388 0.845 
0.145256 0.114388 0.845 
0.147588 0.114929 0.849 
-0.294837 0.1082 0.788 
-0.292567 0.107926 0.786 
-0.290304 0.107651 0.784 
-0.288786 0.107651 0.784 
-0.286902 0.107514 0.783 
-0.285385 0.107514 0.783 
-0.283144 0.107239 0.781 
-0.281632 0.107239 0.781 
-0.280119 0.107239 0.781 
-0.278607 0.107239 0.781 
-0.276385 0.106965 0.779 
-0.274171 0.10669 0.777 
-0.272666 0.10669 0.777 
-0.271162 0.10669 0.777 
-0.269657 0.10669 0.777 
-0.267808 0.106553 0.776 
-0.266305 0.106553 0.776 
-0.263437 0.106003 0.772 
-0.260925 0.105591 0.769 
-0.258086 0.105042 0.765 
-0.255934 0.104768 0.763 
-0.255123 0.105042 0.765 
-0.252979 0.104768 0.763 
-0.251501 0.104768 0.763 
-0.250679 0.105042 0.765 
-0.24985 0.105317 0.767 
-0.249012 0.105591 0.769 
-0.247523 0.105591 0.769 
-0.246354 0.105729 0.77 
-0.246135 0.106278 0.774 
-0.244636 0.106278 0.774 
-0.243766 0.106553 0.776 
-0.242575 0.10669 0.777 
-0.24076 0.106553 0.776 
-0.239566 0.10669 0.777 
-0.238061 0.10669 0.777 
-0.236557 0.10669 0.777 
-0.235052 0.10669 0.777 
-0.233548 0.10669 0.777 
-0.23264 0.106965 0.779 
-0.231132 0.106965 0.779 
-0.229623 0.106965 0.779 
-0.228115 0.106965 0.779 
-0.227188 0.107239 0.781 
-0.225676 0.107239 0.781 
-0.224738 0.107514 0.783 
-0.223222 0.107514 0.783 
-0.221705 0.107514 0.783 
-0.22047 0.107651 0.784 
-0.218952 0.107651 0.784 
-0.217434 0.107651 0.784 
-0.217018 0.1082 0.788 
-0.215492 0.1082 0.788 
-0.214509 0.108475 0.79 
-0.212979 0.108475 0.79 
-0.21145 0.108475 0.79 
-0.20992 0.108475 0.79 
-0.215207 0.113693 0.828 
-0.213604 0.113693 0.828 
-0.212001 0.113693 0.828 
-0.210397 0.113693 0.828 
-0.208794 0.113693 0.828 
-0.207691 0.113967 0.83 
-0.206084 0.113967 0.83 
-0.204477 0.113967 0.83 
-0.202381 0.113693 0.828 
-0.200777 0.113693 0.828 
-0.199174 0.113693 0.828 
-0.132511 0.117126 0.853 
-0.13086 0.117126 0.853 
-0.129208 0.117126 0.853 
-0.127556 0.117126 0.853 
-0.1262 0.1174 0.855 
-0.124544 0.1174 0.855 
-0.122888 0.1174 0.855 
-0.121233 0.1174 0.855 
-0.119577 0.1174 0.855 
-0.117646 0.117126 0.853 
-0.115994 0.117126 0.853 
-0.114342 0.117126 0.853 
0.122639 0.116302 0.847 
0.123985 0.116027 0.845 
0.125621 0.116027 0.845 
0.127258 0.116027 0.845 
0.128894 0.116027 0.845 
0.13053 0.116027 0.845 
0.132166 0.116027 0.845 
0.133328 0.115615 0.842 
0.134958 0.115615 0.842 
0.136589 0.115615 0.842 
0.138219 0.115615 0.842 
0.140348 0.116027 0.845 
0.141984 0.116027 0.845 
0.14362 0.116027 0.845 
0.145256 0.116027 0.845 
-0.295585 0.110007 0.79 
-0.293311 0.109729 0.788 
-0.290304 0.109172 0.784 
-0.288786 0.109172 0.784 
-0.287268 0.109172 0.784 
-0.285385 0.109033 0.783 
-0.283869 0.109033 0.783 
-0.281632 0.108754 0.781 
-0.280119 0.108754 0.781 
-0.278607 0.108754 0.781 
-0.276385 0.108476 0.779 
-0.274171 0.108197 0.777 
-0.272666 0.108197 0.777 
-0.271162 0.108197 0.777 
-0.269657 0.108197 0.777 
-0.267808 0.108058 0.776 
-0.265619 0.107779 0.774 
-0.262755 0.107222 0.77 
-0.260925 0.107083 0.769 
-0.258086 0.106526 0.765 
-0.255934 0.106248 0.763 
-0.255123 0.106526 0.765 
-0.252979 0.106248 0.763 
-0.251501 0.106248 0.763 
-0.250679 0.106526 0.765 
-0.24985 0.106805 0.767 
-0.249012 0.107083 0.769 
-0.247523 0.107083 0.769 
-0.246354 0.107222 0.77 
-0.246135 0.107779 0.774 
-0.244636 0.107779 0.774 
-0.243766 0.108058 0.776 
-0.242263 0.108058 0.776 
-0.24076 0.108058 0.776 
-0.239258 0.108058 0.776 
-0.238061 0.108197 0.777 
-0.236557 0.108197 0.777 
-0.235052 0.108197 0.777 
-0.233548 0.108197 0.777 
-0.23264 0.108476 0.779 
-0.231132 0.108476 0.779 
-0.230213 0.108754 0.781 
-0.228701 0.108754 0.781 
-0.227188 0.108754 0.781 
-0.226254 0.109033 0.783 
-0.224738 0.109033 0.783 
-0.223222 0.109033 0.783 
-0.221989 0.109172 0.784 
-0.22047 0.109172 0.784 
-0.218952 0.109172 0.784 
-0.217989 0.10945 0.786 
-0.217018 0.109729 0.788 
-0.215492 0.109729 0.788 
-0.213966 0.109729 0.788 
-0.212979 0.110007 0.79 
-0.21145 0.110007 0.79 
-0.20992 0.110007 0.79 
-0.215207 0.115299 0.828 
-0.213604 0.115299 0.828 
-0.212001 0.115299 0.828 
-0.210397 0.115299 0.828 
-0.208794 0.115299 0.828 
-0.207691 0.115577 0.83 
-0.206084 0.115577 0.83 
-0.204477 0.115577 0.83 
-0.202381 0.115299 0.828 
-0.200777 0.115299 0.828 
-0.199174 0.115299 0.828 
-0.132822 0.119059 0.855 
-0.131167 0.119059 0.855 
-0.129511 0.119059 0.855 
-0.127855 0.119059 0.855 
-0.1262 0.119059 0.855 
-0.124544 0.119059 0.855 
-0.122888 0.119059 0.855 
-0.121233 0.119059 0.855 
-0.119577 0.119059 0.855 
-0.117922 0.119059 0.855 
-0.116266 0.119059 0.855 
-0.114342 0.11878 0.853 
-0.112426 0.118502 0.851 
0.121284 0.118223 0.849 
0.122639 0.117945 0.847 
0.123985 0.117666 0.845 
0.125621 0.117666 0.845 
0.127258 0.117666 0.845 
0.128894 0.117666 0.845 
0.13053 0.117666 0.845 
0.132166 0.117666 0.845 
0.133328 0.117248 0.842 
0.134958 0.117248 0.842 
0.136589 0.117248 0.842 
0.138219 0.117248 0.842 
0.140348 0.117666 0.845 
0.141984 0.117666 0.845 
0.14362 0.117666 0.845 
0.145256 0.117666 0.845 
-0.295585 0.11154 0.79 
-0.293311 0.111257 0.788 
-0.291045 0.110975 0.786 
-0.289523 0.110975 0.786 
-0.287268 0.110693 0.784 
-0.28575 0.110693 0.784 
-0.283869 0.110551 0.783 
-0.282353 0.110551 0.783 
-0.280837 0.110551 0.783 
-0.278607 0.110269 0.781 
-0.277095 0.110269 0.781 
-0.274877 0.109987 0.779 
-0.272666 0.109704 0.777 
-0.271162 0.109704 0.777 
-0.269657 0.109704 0.777 
-0.267808 0.109563 0.776 
-0.264932 0.108998 0.772 
-0.262755 0.108716 0.77 
-0.260925 0.108575 0.769 
-0.258086 0.10801 0.765 
-0.256605 0.10801 0.765 
-0.255123 0.10801 0.765 
-0.253642 0.10801 0.765 
-0.252161 0.10801 0.765 
-0.251335 0.108292 0.767 
-0.250501 0.108575 0.769 
-0.249012 0.108575 0.769 
-0.247845 0.108716 0.77 
-0.246354 0.108716 0.77 
-0.246135 0.109281 0.774 
-0.244636 0.109281 0.774 
-0.243766 0.109563 0.776 
-0.242263 0.109563 0.776 
-0.24076 0.109563 0.776 
-0.239258 0.109563 0.776 
-0.238061 0.109704 0.777 
-0.236557 0.109704 0.777 
-0.235052 0.109704 0.777 
-0.233548 0.109704 0.777 
-0.232043 0.109704 0.777 
-0.231132 0.109987 0.779 
-0.229623 0.109987 0.779 
-0.228701 0.110269 0.781 
-0.227188 0.110269 0.781 
-0.226254 0.110551 0.783 
-0.224738 0.110551 0.783 
-0.223222 0.110551 0.783 
-0.221989 0.110693 0.784 
-0.22047 0.110693 0.784 
-0.219511 0.110975 0.786 
-0.217989 0.110975 0.786 
-0.217018 0.111257 0.788 
-0.215492 0.111257 0.788 
-0.213966 0.111257 0.788 
-0.212979 0.11154 0.79 
-0.21145 0.11154 0.79 
-0.20992 0.11154 0.79 
-0.217334 0.117187 0.83 
-0.215207 0.116905 0.828 
-0.213604 0.116905 0.828 
-0.212001 0.116905 0.828 
-0.210397 0.116905 0.828 
-0.208794 0.116905 0.828 
-0.207691 0.117187 0.83 
-0.206084 0.117187 0.83 
-0.204477 0.117187 0.83 
-0.202869 0.117187 0.83 
-0.200777 0.116905 0.828 
-0.199174 0.116905 0.828 
-0.133133 0.120999 0.857 
-0.131167 0.120717 0.855 
-0.129511 0.120717 0.855 
-0.127855 0.120717 0.855 
-0.1262 0.120717 0.855 
-0.124835 0.120999 0.857 
-0.123176 0.120999 0.857 
-0.121516 0.120999 0.857 
-0.119857 0.120999 0.857 
-0.117922 0.120717 0.855 
-0.116266 0.120717 0.855 
-0.11461 0.120717 0.855 
0.122639 0.119588 0.847 
0.123985 0.119305 0.845 
0.125621 0.119305 0.845 
0.127258 0.119305 0.845 
0.128894 0.119305 0.845 
0.13053 0.119305 0.845 
0.132166 0.119305 0.845 
0.133328 0.118882 0.842 
0.134958 0.118882 0.842 
0.136589 0.118882 0.842 
0.138219 0.118882 0.842 
0.140348 0.119305 0.845 
0.141984 0.119305 0.845 
0.14362 0.119305 0.845 
0.145256 0.119305 0.845 
0.14724 0.119588 0.847 
-0.296334 0.113358 0.792 
-0.294056 0.113072 0.79 
-0.291785 0.112786 0.788 
-0.290259 0.112786 0.788 
-0.288001 0.1125 0.786 
-0.28575 0.112213 0.784 
-0.284232 0.112213 0.784 
-0.282353 0.11207 0.783 
-0.280837 0.11207 0.783 
-0.279321 0.11207 0.783 
-0.277095 0.111784 0.781 
-0.274877 0.111498 0.779 
-0.272666 0.111211 0.777 
-0.271162 0.111211 0.777 
-0.269657 0.111211 0.777 
-0.267808 0.111068 0.776 
-0.264246 0.11021 0.77 
-0.262755 0.11021 0.77 
-0.260925 0.110066 0.769 
-0.258761 0.10978 0.767 
-0.256605 0.109494 0.765 
-0.25579 0.10978 0.767 
-0.253642 0.109494 0.765 
-0.252161 0.109494 0.765 
-0.251335 0.10978 0.767 
-0.250501 0.110066 0.769 
-0.249012 0.110066 0.769 
-0.247845 0.11021 0.77 
-0.246354 0.11021 0.77 
-0.245499 0.110496 0.772 
-0.244636 0.110782 0.774 
-0.243766 0.111068 0.776 
-0.242263 0.111068 0.776 
-0.24076 0.111068 0.776 
-0.239258 0.111068 0.776 
-0.237755 0.111068 0.776 
-0.236557 0.111211 0.777 
-0.235052 0.111211 0.777 
-0.233548 0.111211 0.777 
-0.232043 0.111211 0.777 
-0.231132 0.111498 0.779 
-0.230213 0.111784 0.781 
-0.228701 0.111784 0.781 
-0.227188 0.111784 0.781 
-0.226254 0.11207 0.783 
-0.224738 0.11207 0.783 
-0.223222 0.11207 0.783 
-0.221989 0.112213 0.784 
-0.22047 0.112213 0.784 
-0.219511 0.1125 0.786 
-0.217989 0.1125 0.786 
-0.217018 0.112786 0.788 
-0.215492 0.112786 0.788 
-0.213966 0.112786 0.788 
-0.212979 0.113072 0.79 
-0.21145 0.113072 0.79 
-0.209388 0.112786 0.788 
-0.217334 0.118797 0.83 
-0.215207 0.118511 0.828 
-0.213604 0.118511 0.828 
-0.212001 0.118511 0.828 
-0.210397 0.118511 0.828 
-0.208794 0.118511 0.828 
-0.207691 0.118797 0.83 
-0.206084 0.118797 0.83 
-0.204477 0.118797 0.83 
-0.202869 0.118797 0.83 
-0.201262 0.118797 0.83 
-0.199174 0.118511 0.828 
-0.133444 0.122948 0.859 
-0.131167 0.122376 0.855 
-0.129511 0.122376 0.855 
-0.128154 0.122662 0.857 
-0.126495 0.122662 0.857 
-0.124835 0.122662 0.857 
-0.123176 0.122662 0.857 
-0.1218 0.122948 0.859 
-0.119857 0.122662 0.857 
-0.118197 0.122662 0.857 
-0.116538 0.122662 0.857 
-0.114879 0.122662 0.857 
0.122639 0.12123 0.847 
0.124279 0.12123 0.847 
0.125919 0.12123 0.847 
0.127559 0.12123 0.847 
0.128894 0.120944 0.845 
0.13053 0.120944 0.845 
0.132166 0.120944 0.845 
0.133803 0.120944 0.845 
0.135439 0.120944 0.845 
0.137075 0.120944 0.845 
0.138711 0.120944 0.845 
0.140348 0.120944 0.845 
0.141984 0.120944 0.845 
0.14362 0.120944 0.845 
0.145256 0.120944 0.845 
0.14724 0.12123 0.847 
-0.296334 0.114895 0.792 
-0.294056 0.114604 0.79 
-0.291785 0.114314 0.788 
-0.290259 0.114314 0.788 
-0.288001 0.114024 0.786 
-0.286479 0.114024 0.786 
-0.284232 0.113734 0.784 
-0.282714 0.113734 0.784 
-0.281195 0.113734 0.784 
-0.279321 0.113589 0.783 
-0.277804 0.113589 0.783 
-0.275582 0.113299 0.781 
-0.273368 0.113009 0.779 
-0.27186 0.113009 0.779 
-0.269657 0.112719 0.777 
-0.267808 0.112574 0.776 
-0.265619 0.112283 0.774 
-0.262755 0.111703 0.77 
-0.260925 0.111558 0.769 
-0.259436 0.111558 0.769 
-0.257276 0.111268 0.767 
-0.25579 0.111268 0.767 
-0.254305 0.111268 0.767 
-0.25282 0.111268 0.767 
-0.251335 0.111268 0.767 
-0.250501 0.111558 0.769 
-0.249012 0.111558 0.769 
-0.247845 0.111703 0.77 
-0.246354 0.111703 0.77 
-0.245499 0.111993 0.772 
-0.244004 0.111993 0.772 
-0.243137 0.112283 0.774 
-0.242263 0.112574 0.776 
-0.24076 0.112574 0.776 
-0.239258 0.112574 0.776 
-0.238061 0.112719 0.777 
-0.236557 0.112719 0.777 
-0.235052 0.112719 0.777 
-0.233548 0.112719 0.777 
-0.23264 0.113009 0.779 
-0.231725 0.113299 0.781 
-0.230213 0.113299 0.781 
-0.228701 0.113299 0.781 
-0.22777 0.113589 0.783 
-0.226254 0.113589 0.783 
-0.224738 0.113589 0.783 
-0.223507 0.113734 0.784 
-0.221989 0.113734 0.784 
-0.221033 0.114024 0.786 
-0.219511 0.114024 0.786 
-0.217989 0.114024 0.786 
-0.217018 0.114314 0.788 
-0.216039 0.114604 0.79 
-0.214509 0.114604 0.79 
-0.212979 0.114604 0.79 
-0.21145 0.114604 0.79 
-0.218941 0.120407 0.83 
-0.217334 0.120407 0.83 
-0.215207 0.120117 0.828 
-0.213604 0.120117 0.828 
-0.212001 0.120117 0.828 
-0.210397 0.120117 0.828 
-0.209298 0.120407 0.83 
-0.207691 0.120407 0.83 
-0.206084 0.120407 0.83 
-0.204477 0.120407 0.83 
-0.202869 0.120407 0.83 
-0.201262 0.120407 0.83 
-0.13391 0.125049 0.862 
-0.13178 0.124614 0.859 
-0.129814 0.124324 0.857 
-0.128453 0.124614 0.859 
-0.12679 0.124614 0.859 
-0.125127 0.124614 0.859 
-0.123463 0.124614 0.859 
-0.1218 0.124614 0.859 
-0.120137 0.124614 0.859 
-0.118197 0.124324 0.857 
-0.11681 0.124614 0.859 
-0.115147 0.124614 0.859 
0.12157 0.123454 0.851 
0.122639 0.122873 0.847 
0.124279 0.122873 0.847 
0.125919 0.122873 0.847 
0.127559 0.122873 0.847 
0.128894 0.122583 0.845 
0.13053 0.122583 0.845 
0.132166 0.122583 0.845 
0.133803 0.122583 0.845 
0.135439 0.122583 0.845 
0.137075 0.122583 0.845 
0.138711 0.122583 0.845 
0.140348 0.122583 0.845 
0.141984 0.122583 0.845 
0.14362 0.122583 0.845 
0.145256 0.122583 0.845 
-0.296334 0.116431 0.792 
-0.294056 0.116137 0.79 
-0.292526 0.116137 0.79 
-0.290996 0.116137 0.79 
-0.288734 0.115843 0.788 
-0.286479 0.115549 0.786 
-0.284957 0.115549 0.786 
-0.282714 0.115255 0.784 
-0.281195 0.115255 0.784 
-0.279677 0.115255 0.784 
-0.277804 0.115108 0.783 
-0.276288 0.115108 0.783 
-0.27407 0.114814 0.781 
-0.272558 0.114814 0.781 
-0.269657 0.114226 0.777 
-0.268153 0.114226 0.777 
-0.266305 0.114079 0.776 
-0.26412 0.113785 0.774 
-0.261264 0.113197 0.77 
-0.259436 0.11305 0.769 
-0.257946 0.11305 0.769 
-0.256457 0.11305 0.769 
-0.254305 0.112756 0.767 
-0.25282 0.112756 0.767 
-0.25199 0.11305 0.769 
-0.250501 0.11305 0.769 
-0.249012 0.11305 0.769 
-0.247845 0.113197 0.77 
-0.246354 0.113197 0.77 
-0.245499 0.113491 0.772 
-0.244636 0.113785 0.774 
-0.243766 0.114079 0.776 
-0.242263 0.114079 0.776 
-0.24076 0.114079 0.776 
-0.239258 0.114079 0.776 
-0.238061 0.114226 0.777 
-0.236557 0.114226 0.777 
-0.235052 0.114226 0.777 
-0.234149 0.11452 0.779 
-0.23264 0.11452 0.779 
-0.231725 0.114814 0.781 
-0.230213 0.114814 0.781 
-0.229286 0.115108 0.783 
-0.22777 0.115108 0.783 
-0.226254 0.115108 0.783 
-0.225025 0.115255 0.784 
-0.223507 0.115255 0.784 
-0.222555 0.115549 0.786 
-0.221033 0.115549 0.786 
-0.220069 0.115843 0.788 
-0.218544 0.115843 0.788 
-0.217018 0.115843 0.788 
-0.216039 0.116137 0.79 
-0.214509 0.116137 0.79 
-0.212979 0.116137 0.79 
-0.21145 0.116137 0.79 
-0.20992 0.116137 0.79 
-0.218941 0.122017 0.83 
-0.217334 0.122017 0.83 
-0.215207 0.121723 0.828 
-0.213604 0.121723 0.828 
-0.212001 0.121723 0.828 
-0.210397 0.121723 0.828 
-0.208794 0.121723 0.828 
-0.207691 0.122017 0.83 
-0.206084 0.122017 0.83 
-0.204969 0.122311 0.832 
-0.203358 0.122311 0.832 
-0.201262 0.122017 0.83 
-0.13422 0.127016 0.864 
-0.13224 0.126722 0.862 
-0.130117 0.12628 0.859 
-0.128453 0.12628 0.859 
-0.12679 0.12628 0.859 
-0.125127 0.12628 0.859 
-0.123895 0.126722 0.862 
-0.122225 0.126722 0.862 
-0.120556 0.126722 0.862 
-0.118473 0.12628 0.859 
-0.117218 0.126722 0.862 
-0.115549 0.126722 0.862 
-0.11388 0.126722 0.862 
0.12157 0.125104 0.851 
0.122928 0.12481 0.849 
0.124279 0.124516 0.847 
0.125919 0.124516 0.847 
0.127559 0.124516 0.847 
0.128894 0.124222 0.845 
0.13053 0.124222 0.845 
0.132166 0.124222 0.845 
0.133803 0.124222 0.845 
0.135439 0.124222 0.845 
0.137075 0.124222 0.845 
0.138711 0.124222 0.845 
0.140348 0.124222 0.845 
0.141984 0.124222 0.845 
0.14362 0.124222 0.845 
0.145256 0.124222 0.845 
0.14724 0.124516 0.847 
-0.296334 0.117967 0.792 
-0.2948 0.117967 0.792 
-0.292526 0.117669 0.79 
-0.290996 0.117669 0.79 
-0.288734 0.117371 0.788 
-0.287208 0.117371 0.788 
-0.284957 0.117073 0.786 
-0.282714 0.116776 0.784 
-0.281195 0.116776 0.784 
-0.279677 0.116776 0.784 
-0.277804 0.116627 0.783 
-0.276288 0.116627 0.783 
-0.27407 0.116329 0.781 
-0.272558 0.116329 0.781 
-0.270351 0.116031 0.779 
-0.268843 0.116031 0.779 
-0.266648 0.115733 0.777 
-0.264802 0.115584 0.776 
-0.262621 0.115286 0.774 
-0.259773 0.11469 0.77 
-0.258282 0.11469 0.77 
-0.256791 0.11469 0.77 
-0.254968 0.114541 0.769 
-0.253479 0.114541 0.769 
-0.252318 0.11469 0.77 
-0.250827 0.11469 0.77 
-0.249336 0.11469 0.77 
-0.247845 0.11469 0.77 
-0.246994 0.114988 0.772 
-0.246135 0.115286 0.774 
-0.245268 0.115584 0.776 
-0.243766 0.115584 0.776 
-0.242263 0.115584 0.776 
-0.24076 0.115584 0.776 
-0.239566 0.115733 0.777 
-0.238061 0.115733 0.777 
-0.236557 0.115733 0.777 
-0.235657 0.116031 0.779 
-0.23475 0.116329 0.781 
-0.233238 0.116329 0.781 
-0.232319 0.116627 0.783 
-0.230803 0.116627 0.783 
-0.229286 0.116627 0.783 
-0.22777 0.116627 0.783 
-0.226254 0.116627 0.783 
-0.225025 0.116776 0.784 
-0.223507 0.116776 0.784 
-0.222555 0.117073 0.786 
-0.221033 0.117073 0.786 
-0.220069 0.117371 0.788 
-0.218544 0.117371 0.788 
-0.217569 0.117669 0.79 
-0.216039 0.117669 0.79 
-0.214509 0.117669 0.79 
-0.212979 0.117669 0.79 
-0.21145 0.117669 0.79 
-0.20992 0.117669 0.79 
-0.218941 0.123627 0.83 
-0.217334 0.123627 0.83 
-0.215207 0.123329 0.828 
-0.213604 0.123329 0.828 
-0.212513 0.123627 0.83 
-0.210905 0.123627 0.83 
-0.209298 0.123627 0.83 
-0.207691 0.123627 0.83 
-0.206084 0.123627 0.83 
-0.204969 0.123925 0.832 
-0.203358 0.123925 0.832 
-0.201747 0.123925 0.832 
-0.199655 0.123627 0.83 
-0.13422 0.128691 0.864 
-0.13224 0.128394 0.862 
-0.130571 0.128394 0.862 
-0.128902 0.128394 0.862 
-0.127233 0.128394 0.862 
-0.125127 0.127947 0.859 
-0.123895 0.128394 0.862 
-0.122225 0.128394 0.862 
-0.120556 0.128394 0.862 
-0.118473 0.127947 0.859 
-0.117218 0.128394 0.862 
-0.115549 0.128394 0.862 
-0.114144 0.128691 0.864 
0.12157 0.126755 0.851 
0.122928 0.126457 0.849 
0.124572 0.126457 0.849 
0.125919 0.126159 0.847 
0.127559 0.126159 0.847 
0.129199 0.126159 0.847 
0.130839 0.126159 0.847 
0.132166 0.125861 0.845 
0.133803 0.125861 0.845 
0.135439 0.125861 0.845 
0.137075 0.125861 0.845 
0.138711 0.125861 0.845 
0.140348 0.125861 0.845 
0.141984 0.125861 0.845 
0.14362 0.125861 0.845 
0.145256 0.125861 0.845 
-0.296334 0.119503 0.792 
-0.294056 0.119202 0.79 
-0.292526 0.119202 0.79 
-0.290996 0.119202 0.79 
-0.288734 0.1189 0.788 
-0.287208 0.1189 0.788 
-0.284957 0.118598 0.786 
-0.282714 0.118296 0.784 
-0.281195 0.118296 0.784 
-0.279677 0.118296 0.784 
-0.277804 0.118145 0.783 
-0.276288 0.118145 0.783 
-0.274772 0.118145 0.783 
-0.272558 0.117844 0.781 
-0.270351 0.117542 0.779 
-0.268843 0.117542 0.779 
-0.266648 0.11724 0.777 
-0.265144 0.11724 0.777 
-0.262621 0.116787 0.774 
-0.260448 0.116486 0.772 
-0.258282 0.116184 0.77 
-0.256791 0.116184 0.77 
-0.2553 0.116184 0.77 
-0.253809 0.116184 0.77 
-0.252318 0.116184 0.77 
-0.250827 0.116184 0.77 
-0.249336 0.116184 0.77 
-0.248489 0.116486 0.772 
-0.246994 0.116486 0.772 
-0.246771 0.117089 0.776 
-0.245268 0.117089 0.776 
-0.243766 0.117089 0.776 
-0.242575 0.11724 0.777 
-0.24107 0.11724 0.777 
-0.239566 0.11724 0.777 
-0.238061 0.11724 0.777 
-0.236557 0.11724 0.777 
-0.235657 0.117542 0.779 
-0.23475 0.117844 0.781 
-0.233238 0.117844 0.781 
-0.232319 0.118145 0.783 
-0.230803 0.118145 0.783 
-0.229286 0.118145 0.783 
-0.22777 0.118145 0.783 
-0.226254 0.118145 0.783 
-0.225025 0.118296 0.784 
-0.223507 0.118296 0.784 
-0.222555 0.118598 0.786 
-0.221033 0.118598 0.786 
-0.220069 0.1189 0.788 
-0.218544 0.1189 0.788 
-0.217569 0.119202 0.79 
-0.216039 0.119202 0.79 
-0.214509 0.119202 0.79 
-0.212979 0.119202 0.79 
-0.21145 0.119202 0.79 
-0.218941 0.125237 0.83 
-0.217334 0.125237 0.83 
-0.215207 0.124935 0.828 
-0.213604 0.124935 0.828 
-0.212513 0.125237 0.83 
-0.210905 0.125237 0.83 
-0.209298 0.125237 0.83 
-0.207691 0.125237 0.83 
-0.206084 0.125237 0.83 
-0.204969 0.125539 0.832 
-0.203358 0.125539 0.832 
-0.201747 0.125539 0.832 
-0.200136 0.125539 0.832 
-0.13422 0.130367 0.864 
-0.132547 0.130367 0.864 
-0.130571 0.130066 0.862 
-0.128902 0.130066 0.862 
-0.127233 0.130066 0.862 
-0.125564 0.130066 0.862 
-0.123895 0.130066 0.862 
-0.122225 0.130066 0.862 
-0.120556 0.130066 0.862 
-0.118887 0.130066 0.862 
-0.11749 0.130367 0.864 
-0.115817 0.130367 0.864 
0.119922 0.128406 0.851 
0.121284 0.128104 0.849 
0.122928 0.128104 0.849 
0.124572 0.128104 0.849 
0.126216 0.128104 0.849 
0.127559 0.127802 0.847 
0.129199 0.127802 0.847 
0.130839 0.127802 0.847 
0.132479 0.127802 0.847 
0.133803 0.1275 0.845 
0.135439 0.1275 0.845 
0.137075 0.1275 0.845 
0.138711 0.1275 0.845 
0.140348 0.1275 0.845 
0.141984 0.1275 0.845 
0.14362 0.1275 0.845 
0.145256 0.1275 0.845 
-0.298619 0.121345 0.794 
-0.297082 0.121345 0.794 
-0.2948 0.12104 0.792 
-0.292526 0.120734 0.79 
-0.290996 0.120734 0.79 
-0.289466 0.120734 0.79 
-0.287208 0.120428 0.788 
-0.284957 0.120123 0.786 
-0.283435 0.120123 0.786 
-0.281195 0.119817 0.784 
-0.279677 0.119817 0.784 
-0.278159 0.119817 0.784 
-0.276288 0.119664 0.783 
-0.274772 0.119664 0.783 
-0.272558 0.119359 0.781 
-0.271046 0.119359 0.781 
-0.268843 0.119053 0.779 
-0.266648 0.118747 0.777 
-0.265144 0.118747 0.777 
-0.2633 0.118594 0.776 
-0.261122 0.118289 0.774 
-0.258953 0.117983 0.772 
-0.257458 0.117983 0.772 
-0.2553 0.117677 0.77 
-0.253809 0.117677 0.77 
-0.252318 0.117677 0.77 
-0.250827 0.117677 0.77 
-0.249336 0.117677 0.77 
-0.248489 0.117983 0.772 
-0.247634 0.118289 0.774 
-0.246771 0.118594 0.776 
-0.245268 0.118594 0.776 
-0.243766 0.118594 0.776 
-0.242575 0.118747 0.777 
-0.24107 0.118747 0.777 
-0.239566 0.118747 0.777 
-0.238061 0.118747 0.777 
-0.236557 0.118747 0.777 
-0.235657 0.119053 0.779 
-0.23475 0.119359 0.781 
-0.233238 0.119359 0.781 
-0.232319 0.119664 0.783 
-0.230803 0.119664 0.783 
-0.229286 0.119664 0.783 
-0.228061 0.119817 0.784 
-0.226543 0.119817 0.784 
-0.225025 0.119817 0.784 
-0.224077 0.120123 0.786 
-0.223121 0.120428 0.788 
-0.221595 0.120428 0.788 
-0.220069 0.120428 0.788 
-0.218544 0.120428 0.788 
-0.217569 0.120734 0.79 
-0.216039 0.120734 0.79 
-0.214509 0.120734 0.79 
-0.212979 0.120734 0.79 
-0.21145 0.120734 0.79 
-0.218941 0.126847 0.83 
-0.217334 0.126847 0.83 
-0.215207 0.126541 0.828 
-0.213604 0.126541 0.828 
-0.212513 0.126847 0.83 
-0.210905 0.126847 0.83 
-0.209298 0.126847 0.83 
-0.207691 0.126847 0.83 
-0.20658 0.127153 0.832 
-0.204969 0.127153 0.832 
-0.203847 0.127458 0.834 
-0.202232 0.127458 0.834 
-0.200136 0.127153 0.832 
-0.13422 0.132043 0.864 
-0.132547 0.132043 0.864 
-0.130874 0.132043 0.864 
-0.128902 0.131738 0.862 
-0.127233 0.131738 0.862 
-0.125564 0.131738 0.862 
-0.123895 0.131738 0.862 
-0.122509 0.132043 0.864 
-0.120556 0.131738 0.862 
-0.118887 0.131738 0.862 
-0.11749 0.132043 0.864 
-0.115817 0.132043 0.864 
0.12157 0.130056 0.851 
0.122928 0.129751 0.849 
0.124572 0.129751 0.849 
0.126216 0.129751 0.849 
0.127559 0.129445 0.847 
0.129199 0.129445 0.847 
0.130839 0.129445 0.847 
0.132479 0.129445 0.847 
0.133803 0.12914 0.845 
0.135439 0.12914 0.845 
0.137075 0.12914 0.845 
0.138711 0.12914 0.845 
0.140348 0.12914 0.845 
0.141984 0.12914 0.845 
0.14362 0.12914 0.845 
0.145256 0.12914 0.845 
-0.297082 0.122885 0.794 
-0.2948 0.122576 0.792 
-0.293266 0.122576 0.792 
-0.290996 0.122266 0.79 
-0.289466 0.122266 0.79 
-0.287208 0.121957 0.788 
-0.284957 0.121647 0.786 
-0.283435 0.121647 0.786 
-0.281195 0.121338 0.784 
-0.279677 0.121338 0.784 
-0.278159 0.121338 0.784 
-0.276288 0.121183 0.783 
-0.274772 0.121183 0.783 
-0.272558 0.120873 0.781 
-0.271046 0.120873 0.781 
-0.268843 0.120564 0.779 
-0.266648 0.120254 0.777 
-0.265144 0.120254 0.777 
-0.2633 0.1201 0.776 
-0.261122 0.11979 0.774 
-0.259624 0.11979 0.774 
-0.257458 0.119481 0.772 
-0.2553 0.119171 0.77 
-0.253809 0.119171 0.77 
-0.252318 0.119171 0.77 
-0.251478 0.119481 0.772 
-0.249983 0.119481 0.772 
-0.249132 0.11979 0.774 
-0.247634 0.11979 0.774 
-0.246771 0.1201 0.776 
-0.245268 0.1201 0.776 
-0.243766 0.1201 0.776 
-0.242575 0.120254 0.777 
-0.24107 0.120254 0.777 
-0.239566 0.120254 0.777 
-0.238061 0.120254 0.777 
-0.236557 0.120254 0.777 
-0.235657 0.120564 0.779 
-0.23475 0.120873 0.781 
-0.233238 0.120873 0.781 
-0.232319 0.121183 0.783 
-0.230803 0.121183 0.783 
-0.229579 0.121338 0.784 
-0.228061 0.121338 0.784 
-0.226543 0.121338 0.784 
-0.225025 0.121338 0.784 
-0.224077 0.121647 0.786 
-0.223121 0.121957 0.788 
-0.221595 0.121957 0.788 
-0.220069 0.121957 0.788 
-0.219098 0.122266 0.79 
-0.217569 0.122266 0.79 
-0.216039 0.122266 0.79 
-0.214509 0.122266 0.79 
-0.212979 0.122266 0.79 
-0.21145 0.122266 0.79 
-0.218941 0.128457 0.83 
-0.216811 0.128148 0.828 
-0.215207 0.128148 0.828 
-0.21412 0.128457 0.83 
-0.212513 0.128457 0.83 
-0.210905 0.128457 0.83 
-0.209298 0.128457 0.83 
-0.207691 0.128457 0.83 
-0.20658 0.128767 0.832 
-0.204969 0.128767 0.832 
-0.203847 0.129076 0.834 
-0.202232 0.129076 0.834 
-0.134531 0.134029 0.866 
-0.132547 0.133719 0.864 
-0.130874 0.133719 0.864 
-0.128902 0.13341 0.862 
-0.127233 0.13341 0.862 
-0.125564 0.13341 0.862 
-0.124182 0.133719 0.864 
-0.122509 0.133719 0.864 
-0.120836 0.133719 0.864 
-0.119163 0.133719 0.864 
-0.11749 0.133719 0.864 
-0.116085 0.134029 0.866 
0.12157 0.131707 0.851 
0.122928 0.131398 0.849 
0.124572 0.131398 0.849 
0.126216 0.131398 0.849 
0.12786 0.131398 0.849 
0.129199 0.131088 0.847 
0.130839 0.131088 0.847 
0.132479 0.131088 0.847 
0.133803 0.130779 0.845 
0.135439 0.130779 0.845 
0.1374 0.131088 0.847 
0.138711 0.130779 0.845 
0.140348 0.130779 0.845 
0.141984 0.130779 0.845 
0.14362 0.130779 0.845 
0.145256 0.130779 0.845 
-0.297082 0.124426 0.794 
-0.2948 0.124112 0.792 
-0.293266 0.124112 0.792 
-0.291733 0.124112 0.792 
-0.289466 0.123799 0.79 
-0.287937 0.123799 0.79 
-0.285682 0.123485 0.788 
-0.283435 0.123172 0.786 
-0.281913 0.123172 0.786 
-0.279677 0.122858 0.784 
-0.278159 0.122858 0.784 
-0.276288 0.122702 0.783 
-0.274772 0.122702 0.783 
-0.273256 0.122702 0.783 
-0.271046 0.122388 0.781 
-0.269533 0.122388 0.781 
-0.266648 0.121762 0.777 
-0.265144 0.121762 0.777 
-0.2633 0.121605 0.776 
-0.261122 0.121291 0.774 
-0.259624 0.121291 0.774 
-0.257458 0.120978 0.772 
-0.255963 0.120978 0.772 
-0.254468 0.120978 0.772 
-0.252318 0.120665 0.77 
-0.251478 0.120978 0.772 
-0.249983 0.120978 0.772 
-0.249132 0.121291 0.774 
-0.247634 0.121291 0.774 
-0.246771 0.121605 0.776 
-0.245268 0.121605 0.776 
-0.243766 0.121605 0.776 
-0.242575 0.121762 0.777 
-0.24107 0.121762 0.777 
-0.239566 0.121762 0.777 
-0.238674 0.122075 0.779 
-0.237166 0.122075 0.779 
-0.235657 0.122075 0.779 
-0.23475 0.122388 0.781 
-0.233835 0.122702 0.783 
-0.232319 0.122702 0.783 
-0.230803 0.122702 0.783 
-0.229579 0.122858 0.784 
-0.228061 0.122858 0.784 
-0.226543 0.122858 0.784 
-0.225025 0.122858 0.784 
-0.224077 0.123172 0.786 
-0.223121 0.123485 0.788 
-0.221595 0.123485 0.788 
-0.220069 0.123485 0.788 
-0.218544 0.123485 0.788 
-0.217569 0.123799 0.79 
-0.216039 0.123799 0.79 
-0.214509 0.123799 0.79 
-0.212979 0.123799 0.79 
-0.21145 0.123799 0.79 
-0.20992 0.123799 0.79 
-0.216811 0.129754 0.828 
-0.215207 0.129754 0.828 
-0.21412 0.130067 0.83 
-0.212513 0.130067 0.83 
-0.210905 0.130067 0.83 
-0.209298 0.130067 0.83 
-0.207691 0.130067 0.83 
-0.20658 0.13038 0.832 
-0.204969 0.13038 0.832 
-0.203358 0.13038 0.832 
-0.201747 0.13038 0.832 
-0.134531 0.135708 0.866 
-0.132854 0.135708 0.866 
-0.130874 0.135395 0.864 
-0.129201 0.135395 0.864 
-0.127528 0.135395 0.864 
-0.125855 0.135395 0.864 
-0.124182 0.135395 0.864 
-0.122793 0.135708 0.866 
-0.120836 0.135395 0.864 
-0.119163 0.135395 0.864 
-0.117762 0.135708 0.866 
-0.116353 0.136022 0.868 
0.12157 0.133358 0.851 
0.122928 0.133044 0.849 
0.124572 0.133044 0.849 
0.126216 0.133044 0.849 
0.12786 0.133044 0.849 
0.129199 0.132731 0.847 
0.130839 0.132731 0.847 
0.132479 0.132731 0.847 
0.134119 0.132731 0.847 
0.13576 0.132731 0.847 
0.1374 0.132731 0.847 
0.13904 0.132731 0.847 
0.14068 0.132731 0.847 
0.14232 0.132731 0.847 
0.14396 0.132731 0.847 
0.1456 0.132731 0.847 
-0.297082 0.125966 0.794 
-0.2948 0.125648 0.792 
-0.293266 0.125648 0.792 
-0.291733 0.125648 0.792 
-0.289466 0.125331 0.79 
-0.287937 0.125331 0.79 
-0.285682 0.125014 0.788 
-0.283435 0.124697 0.786 
-0.281913 0.124697 0.786 
-0.279677 0.124379 0.784 
-0.278159 0.124379 0.784 
-0.276288 0.124221 0.783 
-0.274772 0.124221 0.783 
-0.272558 0.123903 0.781 
-0.271046 0.123903 0.781 
-0.268843 0.123586 0.779 
-0.266648 0.123269 0.777 
-0.265144 0.123269 0.777 
-0.2633 0.12311 0.776 
-0.261122 0.122793 0.774 
-0.258953 0.122475 0.772 
-0.257458 0.122475 0.772 
-0.255963 0.122475 0.772 
-0.253809 0.122158 0.77 
-0.252318 0.122158 0.77 
-0.251478 0.122475 0.772 
-0.249983 0.122475 0.772 
-0.249132 0.122793 0.774 
-0.247634 0.122793 0.774 
-0.246771 0.12311 0.776 
-0.245268 0.12311 0.776 
-0.243766 0.12311 0.776 
-0.242575 0.123269 0.777 
-0.24107 0.123269 0.777 
-0.239566 0.123269 0.777 
-0.238674 0.123586 0.779 
-0.237166 0.123586 0.779 
-0.235657 0.123586 0.779 
-0.23475 0.123903 0.781 
-0.233835 0.124221 0.783 
-0.232319 0.124221 0.783 
-0.230803 0.124221 0.783 
-0.229579 0.124379 0.784 
-0.228061 0.124379 0.784 
-0.226543 0.124379 0.784 
-0.225025 0.124379 0.784 
-0.224077 0.124697 0.786 
-0.222555 0.124697 0.786 
-0.221595 0.125014 0.788 
-0.220069 0.125014 0.788 
-0.219098 0.125331 0.79 
-0.217569 0.125331 0.79 
-0.216039 0.125331 0.79 
-0.214509 0.125331 0.79 
-0.212979 0.125331 0.79 
-0.21145 0.125331 0.79 
-0.20992 0.125331 0.79 
-0.216811 0.13136 0.828 
-0.215207 0.13136 0.828 
-0.21412 0.131677 0.83 
-0.212513 0.131677 0.83 
-0.210905 0.131677 0.83 
-0.209298 0.131677 0.83 
-0.208192 0.131994 0.832 
-0.20658 0.131994 0.832 
-0.204969 0.131994 0.832 
-0.203847 0.132312 0.834 
-0.202232 0.132312 0.834 
-0.132854 0.137388 0.866 
-0.130874 0.137071 0.864 
-0.129201 0.137071 0.864 
-0.127528 0.137071 0.864 
-0.125855 0.137071 0.864 
-0.124469 0.137388 0.866 
-0.122793 0.137388 0.866 
-0.120836 0.137071 0.864 
-0.119163 0.137071 0.864 
-0.117762 0.137388 0.866 
-0.116353 0.137706 0.868 
0.119922 0.135009 0.851 
0.12157 0.135009 0.851 
0.122928 0.134691 0.849 
0.124572 0.134691 0.849 
0.126216 0.134691 0.849 
0.12786 0.134691 0.849 
0.129504 0.134691 0.849 
0.131148 0.134691 0.849 
0.132792 0.134691 0.849 
0.134119 0.134374 0.847 
0.13576 0.134374 0.847 
0.1374 0.134374 0.847 
0.13904 0.134374 0.847 
0.14068 0.134374 0.847 
0.14232 0.134374 0.847 
0.14396 0.134374 0.847 
0.1456 0.134374 0.847 
-0.297082 0.127506 0.794 
-0.2948 0.127185 0.792 
-0.293266 0.127185 0.792 
-0.291733 0.127185 0.792 
-0.289466 0.126863 0.79 
-0.287937 0.126863 0.79 
-0.285682 0.126542 0.788 
-0.283435 0.126221 0.786 
-0.281913 0.126221 0.786 
-0.279677 0.1259 0.784 
-0.278159 0.1259 0.784 
-0.276288 0.125739 0.783 
-0.274772 0.125739 0.783 
-0.272558 0.125418 0.781 
-0.271046 0.125418 0.781 
-0.268843 0.125097 0.779 
-0.267335 0.125097 0.779 
-0.265144 0.124776 0.777 
-0.263639 0.124776 0.777 
-0.261797 0.124615 0.776 
-0.259624 0.124294 0.774 
-0.258125 0.124294 0.774 
-0.255963 0.123973 0.772 
-0.254468 0.123973 0.772 
-0.252973 0.123973 0.772 
-0.251478 0.123973 0.772 
-0.249983 0.123973 0.772 
-0.249132 0.124294 0.774 
-0.247634 0.124294 0.774 
-0.246771 0.124615 0.776 
-0.245268 0.124615 0.776 
-0.243766 0.124615 0.776 
-0.242575 0.124776 0.777 
-0.24107 0.124776 0.777 
-0.239566 0.124776 0.777 
-0.238674 0.125097 0.779 
-0.237166 0.125097 0.779 
-0.236262 0.125418 0.781 
-0.23475 0.125418 0.781 
-0.233835 0.125739 0.783 
-0.232319 0.125739 0.783 
-0.230803 0.125739 0.783 
-0.229579 0.1259 0.784 
-0.228061 0.1259 0.784 
-0.226543 0.1259 0.784 
-0.225599 0.126221 0.786 
-0.224077 0.126221 0.786 
-0.223121 0.126542 0.788 
-0.221595 0.126542 0.788 
-0.220069 0.126542 0.788 
-0.219098 0.126863 0.79 
-0.217569 0.126863 0.79 
-0.216039 0.126863 0.79 
-0.214509 0.126863 0.79 
-0.212979 0.126863 0.79 
-0.21145 0.126863 0.79 
-0.20992 0.126863 0.79 
-0.216811 0.132966 0.828 
-0.215207 0.132966 0.828 
-0.21412 0.133287 0.83 
-0.212513 0.133287 0.83 
-0.210905 0.133287 0.83 
-0.209298 0.133287 0.83 
-0.208192 0.133608 0.832 
-0.207077 0.133929 0.834 
-0.205462 0.133929 0.834 
-0.203847 0.133929 0.834 
-0.202232 0.133929 0.834 
-0.200617 0.133929 0.834 
-0.133161 0.139389 0.868 
-0.131177 0.139068 0.866 
-0.129201 0.138747 0.864 
-0.127528 0.138747 0.864 
-0.125855 0.138747 0.864 
-0.124469 0.139068 0.866 
-0.122793 0.139068 0.866 
-0.121116 0.139068 0.866 
-0.119163 0.138747 0.864 
-0.117762 0.139068 0.866 
-0.116353 0.139389 0.868 
0.119922 0.136659 0.851 
0.12157 0.136659 0.851 
0.122928 0.136338 0.849 
0.124572 0.136338 0.849 
0.126513 0.136659 0.851 
0.12786 0.136338 0.849 
0.129504 0.136338 0.849 
0.131148 0.136338 0.849 
0.132792 0.136338 0.849 
0.134119 0.136017 0.847 
0.13576 0.136017 0.847 
0.1374 0.136017 0.847 
0.13904 0.136017 0.847 
0.14068 0.136017 0.847 
0.14232 0.136017 0.847 
0.14396 0.136017 0.847 
0.1456 0.136017 0.847 
-0.297456 0.129208 0.795 
-0.295545 0.129046 0.794 
-0.293266 0.128721 0.792 
-0.291733 0.128721 0.792 
-0.290199 0.128721 0.792 
-0.287937 0.128396 0.79 
-0.285682 0.128071 0.788 
-0.284156 0.128071 0.788 
-0.281913 0.127746 0.786 
-0.279677 0.127421 0.784 
-0.278159 0.127421 0.784 
-0.276641 0.127421 0.784 
-0.274772 0.127258 0.783 
-0.272558 0.126933 0.781 
-0.271046 0.126933 0.781 
-0.268843 0.126608 0.779 
-0.267335 0.126608 0.779 
-0.265144 0.126283 0.777 
-0.263639 0.126283 0.777 
-0.261797 0.12612 0.776 
-0.260294 0.12612 0.776 
-0.258125 0.125795 0.774 
-0.256626 0.125795 0.774 
-0.254468 0.12547 0.772 
-0.252973 0.12547 0.772 
-0.251478 0.12547 0.772 
-0.249983 0.12547 0.772 
-0.249132 0.125795 0.774 
-0.247634 0.125795 0.774 
-0.246771 0.12612 0.776 
-0.245584 0.126283 0.777 
-0.24408 0.126283 0.777 
-0.242575 0.126283 0.777 
-0.24107 0.126283 0.777 
-0.239566 0.126283 0.777 
-0.238674 0.126608 0.779 
-0.237166 0.126608 0.779 
-0.236262 0.126933 0.781 
-0.23475 0.126933 0.781 
-0.233835 0.127258 0.783 
-0.232319 0.127258 0.783 
-0.230803 0.127258 0.783 
-0.229579 0.127421 0.784 
-0.228061 0.127421 0.784 
-0.227121 0.127746 0.786 
-0.225599 0.127746 0.786 
-0.224077 0.127746 0.786 
-0.223121 0.128071 0.788 
-0.221595 0.128071 0.788 
-0.220069 0.128071 0.788 
-0.219098 0.128396 0.79 
-0.217569 0.128396 0.79 
-0.216039 0.128396 0.79 
-0.214509 0.128396 0.79 
-0.212979 0.128396 0.79 
-0.21145 0.128396 0.79 
-0.20992 0.128396 0.79 
-0.212513 0.134897 0.83 
-0.211414 0.135222 0.832 
-0.209803 0.135222 0.832 
-0.208192 0.135222 0.832 
-0.207077 0.135547 0.834 
-0.205462 0.135547 0.834 
-0.203847 0.135547 0.834 
-0.202232 0.135547 0.834 
-0.200617 0.135547 0.834 
-0.133161 0.141073 0.868 
-0.13148 0.141073 0.868 
-0.1295 0.140748 0.866 
-0.127823 0.140748 0.866 
-0.126146 0.140748 0.866 
-0.124757 0.141073 0.868 
-0.123076 0.141073 0.868 
-0.121116 0.140748 0.866 
-0.119439 0.140748 0.866 
-0.117762 0.140748 0.866 
-0.116353 0.141073 0.868 
0.119922 0.13831 0.851 
0.12157 0.13831 0.851 
0.122928 0.137985 0.849 
0.124572 0.137985 0.849 
0.126513 0.13831 0.851 
0.12786 0.137985 0.849 
0.129504 0.137985 0.849 
0.131148 0.137985 0.849 
0.132792 0.137985 0.849 
0.134119 0.13766 0.847 
0.13576 0.13766 0.847 
0.137724 0.137985 0.849 
0.139368 0.137985 0.849 
0.14068 0.13766 0.847 
0.14232 0.13766 0.847 
0.1443 0.137985 0.849 
0.1456 0.13766 0.847 
-0.299748 0.131079 0.797 
-0.297456 0.130751 0.795 
-0.295545 0.130586 0.794 
-0.294007 0.130586 0.794 
-0.291733 0.130257 0.792 
-0.290199 0.130257 0.792 
-0.287937 0.129928 0.79 
-0.285682 0.129599 0.788 
-0.284156 0.129599 0.788 
-0.281913 0.12927 0.786 
-0.279677 0.128941 0.784 
-0.278159 0.128941 0.784 
-0.276641 0.128941 0.784 
-0.274772 0.128777 0.783 
-0.272558 0.128448 0.781 
-0.271046 0.128448 0.781 
-0.269533 0.128448 0.781 
-0.267335 0.128119 0.779 
-0.265144 0.12779 0.777 
-0.263639 0.12779 0.777 
-0.261797 0.127626 0.776 
-0.260294 0.127626 0.776 
-0.258125 0.127297 0.774 
-0.256626 0.127297 0.774 
-0.254468 0.126968 0.772 
-0.252973 0.126968 0.772 
-0.251478 0.126968 0.772 
-0.249983 0.126968 0.772 
-0.249132 0.127297 0.774 
-0.248273 0.127626 0.776 
-0.247089 0.12779 0.777 
-0.245584 0.12779 0.777 
-0.24408 0.12779 0.777 
-0.242575 0.12779 0.777 
-0.24107 0.12779 0.777 
-0.239566 0.12779 0.777 
-0.238674 0.128119 0.779 
-0.237166 0.128119 0.779 
-0.236262 0.128448 0.781 
-0.235351 0.128777 0.783 
-0.233835 0.128777 0.783 
-0.232319 0.128777 0.783 
-0.231097 0.128941 0.784 
-0.229579 0.128941 0.784 
-0.228061 0.128941 0.784 
-0.227121 0.12927 0.786 
-0.225599 0.12927 0.786 
-0.224647 0.129599 0.788 
-0.223121 0.129599 0.788 
-0.221595 0.129599 0.788 
-0.220069 0.129599 0.788 
-0.219098 0.129928 0.79 
-0.217569 0.129928 0.79 
-0.216039 0.129928 0.79 
-0.214509 0.129928 0.79 
-0.213518 0.130257 0.792 
-0.21145 0.129928 0.79 
-0.20992 0.129928 0.79 
-0.212513 0.136507 0.83 
-0.211414 0.136836 0.832 
-0.209803 0.136836 0.832 
-0.208192 0.136836 0.832 
-0.207077 0.137165 0.834 
-0.204969 0.136836 0.832 
-0.203847 0.137165 0.834 
-0.202232 0.137165 0.834 
-0.200136 0.136836 0.832 
-0.13148 0.142757 0.868 
-0.129799 0.142757 0.868 
