-0.139063 0.107252 0.818194 
-0.137597 0.107252 0.818194 
-0.13613 0.107252 0.818194 
-0.134663 0.107252 0.818194 
-0.133197 0.107252 0.818194 
-0.131761 0.107399 0.819194 
-0.130321 0.107545 0.820194 
0.0435252 0.110039 0.837194 
0.0450281 0.110039 0.837194 
0.0416947 0.105345 0.805194 
0.0431366 0.105345 0.805194 
0.0443766 0.105199 0.804194 
0.0458166 0.105199 0.804194 
0.0470509 0.105052 0.803194 
0.048489 0.105052 0.803194 
0.0497176 0.104905 0.802194 
0.0509423 0.104759 0.801194 
0.0521633 0.104612 0.800194 
0.0533804 0.104465 0.799194 
0.0545938 0.104319 0.798194 
0.0558033 0.104172 0.797194 
0.05723 0.104172 0.797194 
0.0584338 0.104025 0.796194 
0.0596338 0.103879 0.795194 
0.06083 0.103732 0.794194 
0.0620224 0.103585 0.793194 
0.0632109 0.103439 0.792194 
0.0646281 0.103439 0.792194 
0.0658109 0.103292 0.791194 
0.06699 0.103145 0.790194 
0.0684033 0.103145 0.790194 
0.0695766 0.102999 0.789194 
0.0709881 0.102999 0.789194 
0.0721557 0.102852 0.788194 
0.0735652 0.102852 0.788194 
0.0747271 0.102705 0.787194 
0.0761347 0.102705 0.787194 
0.0775423 0.102705 0.787194 
0.0786966 0.102559 0.786194 
0.0803576 0.102705 0.787194 
0.0820223 0.102852 0.788194 
0.0836909 0.102999 0.789194 
0.0853633 0.103145 0.790194 
0.0870395 0.103292 0.791194 
0.0887195 0.103439 0.792194 
0.09067 0.103732 0.794194 
0.0926281 0.104025 0.796194 
0.0945938 0.104319 0.798194 
0.0965671 0.104612 0.800194 
0.0985481 0.104905 0.802194 
0.100537 0.105199 0.804194 
0.102533 0.105492 0.806194 
0.104257 0.105639 0.807194 
0.105702 0.105639 0.807194 
0.107432 0.105785 0.808194 
0.109165 0.105932 0.809194 
0.110902 0.106079 0.810194 
-0.218117 0.105599 0.797194 
-0.216545 0.10545 0.796194 
-0.214978 0.105302 0.795194 
-0.213414 0.105153 0.794194 
-0.211993 0.105153 0.794194 
-0.210709 0.105302 0.795194 
-0.209286 0.105302 0.795194 
-0.207863 0.105302 0.795194 
-0.206441 0.105302 0.795194 
-0.205018 0.105302 0.795194 
-0.203722 0.10545 0.796194 
-0.202298 0.10545 0.796194 
-0.200873 0.10545 0.796194 
-0.19957 0.105599 0.797194 
-0.198143 0.105599 0.797194 
-0.196717 0.105599 0.797194 
-0.195406 0.105747 0.798194 
-0.144978 0.108867 0.819194 
-0.143509 0.108867 0.819194 
-0.142041 0.108867 0.819194 
-0.140572 0.108867 0.819194 
-0.139103 0.108867 0.819194 
-0.137597 0.108719 0.818194 
-0.13613 0.108719 0.818194 
-0.134663 0.108719 0.818194 
-0.133197 0.108719 0.818194 
-0.131761 0.108867 0.819194 
-0.130321 0.109016 0.820194 
0.0435252 0.111542 0.837194 
0.0448338 0.111393 0.836194 
0.040449 0.106936 0.806194 
0.0414966 0.106639 0.804194 
0.0429366 0.106639 0.804194 
0.0441747 0.10649 0.803194 
0.0456128 0.10649 0.803194 
0.0470509 0.10649 0.803194 
0.048489 0.10649 0.803194 
0.0497176 0.106342 0.802194 
0.0509423 0.106193 0.801194 
0.0521633 0.106044 0.800194 
0.0533804 0.105896 0.799194 
0.0545938 0.105747 0.798194 
0.0558033 0.105599 0.797194 
0.057009 0.10545 0.796194 
0.0584338 0.10545 0.796194 
0.0596338 0.105302 0.795194 
0.06083 0.105153 0.794194 
0.0620224 0.105004 0.793194 
0.0632109 0.104856 0.792194 
0.0643957 0.104707 0.791194 
0.0658109 0.104707 0.791194 
0.06699 0.104559 0.790194 
0.0681652 0.10441 0.789194 
0.0695766 0.10441 0.789194 
0.0707462 0.104262 0.788194 
0.0721557 0.104262 0.788194 
0.0733195 0.104113 0.787194 
0.0744795 0.103964 0.786194 
0.0758852 0.103964 0.786194 
0.0745252 0.10233 0.775194 
0.0756566 0.102182 0.774194 
0.0770395 0.102182 0.774194 
0.0784223 0.102182 0.774194 
0.0798052 0.102182 0.774194 
0.0811881 0.102182 0.774194 
0.0825709 0.102182 0.774194 
0.0887195 0.104856 0.792194 
0.0904033 0.105004 0.793194 
0.0926281 0.10545 0.796194 
0.0943233 0.105599 0.797194 
0.0962947 0.105896 0.799194 
0.0982738 0.106193 0.801194 
0.100537 0.106639 0.804194 
0.102255 0.106787 0.805194 
0.103977 0.106936 0.806194 
0.105702 0.107084 0.807194 
0.107432 0.107233 0.808194 
0.109165 0.107382 0.809194 
0.110902 0.10753 0.810194 
-0.22097 0.107025 0.797194 
-0.219395 0.106875 0.796194 
-0.21797 0.106875 0.796194 
-0.216401 0.106724 0.795194 
-0.214835 0.106574 0.794194 
-0.213414 0.106574 0.794194 
-0.211854 0.106423 0.793194 
-0.210435 0.106423 0.793194 
-0.209016 0.106423 0.793194 
-0.20773 0.106574 0.794194 
-0.206309 0.106574 0.794194 
-0.204888 0.106574 0.794194 
-0.203467 0.106574 0.794194 
-0.202046 0.106574 0.794194 
-0.200749 0.106724 0.795194 
-0.199326 0.106724 0.795194 
-0.197903 0.106724 0.795194 
-0.196481 0.106724 0.795194 
-0.195174 0.106875 0.796194 
-0.193749 0.106875 0.796194 
-0.192324 0.106875 0.796194 
-0.1909 0.106875 0.796194 
-0.189583 0.107025 0.797194 
-0.188157 0.107025 0.797194 
-0.18673 0.107025 0.797194 
-0.185303 0.107025 0.797194 
-0.183978 0.107176 0.798194 
-0.182549 0.107176 0.798194 
-0.181121 0.107176 0.798194 
-0.179787 0.107326 0.799194 
-0.144978 0.110336 0.819194 
-0.143509 0.110336 0.819194 
-0.142041 0.110336 0.819194 
-0.140572 0.110336 0.819194 
-0.139063 0.110185 0.818194 
-0.137597 0.110185 0.818194 
-0.13613 0.110185 0.818194 
-0.134663 0.110185 0.818194 
-0.133197 0.110185 0.818194 
-0.131761 0.110336 0.819194 
-0.130292 0.110336 0.819194 
0.0433328 0.112894 0.836194 
0.0448338 0.112894 0.836194 
0.0400566 0.108079 0.804194 
0.0412985 0.107928 0.803194 
0.0427366 0.107928 0.803194 
0.0439728 0.107778 0.802194 
0.045409 0.107778 0.802194 
0.0468452 0.107778 0.802194 
0.0482814 0.107778 0.802194 
0.0497176 0.107778 0.802194 
0.0509423 0.107627 0.801194 
0.0521633 0.107477 0.800194 
0.0533804 0.107326 0.799194 
0.0545938 0.107176 0.798194 
0.0558033 0.107025 0.797194 
0.057009 0.106875 0.796194 
0.0582109 0.106724 0.795194 
0.0596338 0.106724 0.795194 
0.06083 0.106574 0.794194 
0.0620224 0.106423 0.793194 
0.0632109 0.106273 0.792194 
0.0643957 0.106123 0.791194 
0.0655766 0.105972 0.790194 
0.0667538 0.105822 0.789194 
0.0681652 0.105822 0.789194 
0.0693366 0.105671 0.788194 
0.0705042 0.105521 0.787194 
0.0719119 0.105521 0.787194 
0.0730738 0.10537 0.786194 
0.0739843 0.105069 0.784194 
0.0751366 0.104919 0.783194 
0.0742738 0.103564 0.774194 
0.0754033 0.103414 0.773194 
0.0767842 0.103414 0.773194 
0.0781652 0.103414 0.773194 
0.0795462 0.103414 0.773194 
0.0809271 0.103414 0.773194 
0.0820452 0.103263 0.772194 
0.0839538 0.103564 0.774194 
0.0904033 0.106423 0.793194 
0.0923595 0.106724 0.795194 
0.0943233 0.107025 0.797194 
0.0962947 0.107326 0.799194 
0.0982738 0.107627 0.801194 
0.10026 0.107928 0.803194 
0.102255 0.108229 0.805194 
0.103977 0.10838 0.806194 
0.105702 0.10853 0.807194 
0.107432 0.108681 0.808194 
0.108879 0.108681 0.808194 
0.110615 0.108831 0.809194 
-0.22082 0.1083 0.796194 
-0.219246 0.108147 0.795194 
-0.217823 0.108147 0.795194 
-0.216401 0.108147 0.795194 
-0.214835 0.107995 0.794194 
-0.213273 0.107843 0.793194 
-0.211715 0.10769 0.792194 
-0.210298 0.10769 0.792194 
-0.208881 0.10769 0.792194 
-0.207463 0.10769 0.792194 
-0.206178 0.107843 0.793194 
-0.204759 0.107843 0.793194 
-0.20334 0.107843 0.793194 
-0.201921 0.107843 0.793194 
-0.200501 0.107843 0.793194 
-0.199082 0.107843 0.793194 
-0.197783 0.107995 0.794194 
-0.196362 0.107995 0.794194 
-0.194941 0.107995 0.794194 
-0.193521 0.107995 0.794194 
-0.192212 0.108147 0.795194 
-0.190789 0.108147 0.795194 
-0.189366 0.108147 0.795194 
-0.187943 0.108147 0.795194 
-0.186521 0.108147 0.795194 
-0.185201 0.1083 0.796194 
-0.183776 0.1083 0.796194 
-0.182351 0.1083 0.796194 
-0.180926 0.1083 0.796194 
-0.179597 0.108452 0.797194 
-0.17817 0.108452 0.797194 
-0.176743 0.108452 0.797194 
-0.175406 0.108604 0.798194 
-0.173978 0.108604 0.798194 
-0.144978 0.111804 0.819194 
-0.143509 0.111804 0.819194 
-0.142041 0.111804 0.819194 
-0.140572 0.111804 0.819194 
-0.139063 0.111652 0.818194 
-0.137597 0.111652 0.818194 
-0.13613 0.111652 0.818194 
-0.134663 0.111652 0.818194 
-0.133197 0.111652 0.818194 
-0.13173 0.111652 0.818194 
-0.130292 0.111804 0.819194 
0.0433328 0.114395 0.836194 
0.0388109 0.109671 0.805194 
0.0398604 0.109366 0.803194 
0.0411004 0.109214 0.802194 
0.0425366 0.109214 0.802194 
0.0439728 0.109214 0.802194 
0.045409 0.109214 0.802194 
0.0468452 0.109214 0.802194 
0.0482814 0.109214 0.802194 
0.0495081 0.109062 0.801194 
0.0509423 0.109062 0.801194 
0.0521633 0.108909 0.800194 
0.0531652 0.108604 0.798194 
0.0545938 0.108604 0.798194 
0.0558033 0.108452 0.797194 
0.057009 0.1083 0.796194 
0.0582109 0.108147 0.795194 
0.059409 0.107995 0.794194 
0.06083 0.107995 0.794194 
0.0620224 0.107843 0.793194 
0.0632109 0.10769 0.792194 
0.0643957 0.107538 0.791194 
0.0655766 0.107385 0.790194 
0.0667538 0.107233 0.789194 
0.0679271 0.107081 0.788194 
0.0693366 0.107081 0.788194 
0.0705042 0.106928 0.787194 
0.0716681 0.106776 0.786194 
0.0728281 0.106623 0.785194 
0.0739843 0.106471 0.784194 
0.0751366 0.106319 0.783194 
0.0742738 0.104947 0.774194 
0.07515 0.104643 0.772194 
0.076529 0.104643 0.772194 
0.0779081 0.104643 0.772194 
0.0792871 0.104643 0.772194 
0.0806662 0.104643 0.772194 
0.0820452 0.104643 0.772194 
0.0884547 0.107538 0.791194 
0.0904033 0.107843 0.793194 
0.0923595 0.108147 0.795194 
0.0943233 0.108452 0.797194 
0.0962947 0.108757 0.799194 
0.0982738 0.109062 0.801194 
0.10026 0.109366 0.803194 
0.102255 0.109671 0.805194 
0.103977 0.109823 0.806194 
0.105702 0.109976 0.807194 
0.107148 0.109976 0.807194 
0.108879 0.110128 0.808194 
0.110615 0.110281 0.809194 
-0.222244 0.109724 0.796194 
-0.220669 0.10957 0.795194 
-0.219098 0.109416 0.794194 
-0.217677 0.109416 0.794194 
-0.216256 0.109416 0.794194 
-0.214692 0.109262 0.793194 
-0.213273 0.109262 0.793194 
-0.211576 0.108953 0.791194 
-0.210161 0.108953 0.791194 
-0.208745 0.108953 0.791194 
-0.20733 0.108953 0.791194 
-0.205915 0.108953 0.791194 
-0.2045 0.108953 0.791194 
-0.203084 0.108953 0.791194 
-0.201795 0.109107 0.792194 
-0.200378 0.109107 0.792194 
-0.198961 0.109107 0.792194 
-0.197543 0.109107 0.792194 
-0.196126 0.109107 0.792194 
-0.194825 0.109262 0.793194 
-0.193406 0.109262 0.793194 
-0.191987 0.109262 0.793194 
-0.190568 0.109262 0.793194 
-0.189258 0.109416 0.794194 
-0.187837 0.109416 0.794194 
-0.186416 0.109416 0.794194 
-0.184995 0.109416 0.794194 
-0.183574 0.109416 0.794194 
-0.182252 0.10957 0.795194 
-0.180829 0.10957 0.795194 
-0.179406 0.10957 0.795194 
-0.178077 0.109724 0.796194 
-0.176652 0.109724 0.796194 
-0.175317 0.109879 0.797194 
-0.17389 0.109879 0.797194 
-0.144978 0.113273 0.819194 
-0.143463 0.113119 0.818194 
-0.141997 0.113119 0.818194 
-0.14053 0.113119 0.818194 
-0.139063 0.113119 0.818194 
-0.137597 0.113119 0.818194 
-0.13613 0.113119 0.818194 
-0.134663 0.113119 0.818194 
-0.133197 0.113119 0.818194 
-0.13173 0.113119 0.818194 
-0.130263 0.113119 0.818194 
0.0433328 0.115896 0.836194 
0.0386166 0.110959 0.804194 
0.0398604 0.110804 0.803194 
0.0412985 0.110804 0.803194 
0.0425366 0.11065 0.802194 
0.0439728 0.11065 0.802194 
0.045409 0.11065 0.802194 
0.0468452 0.11065 0.802194 
0.0482814 0.11065 0.802194 
0.0495081 0.110496 0.801194 
0.0507309 0.110342 0.800194 
0.05195 0.110187 0.799194 
0.0531652 0.110033 0.798194 
0.0543766 0.109879 0.797194 
0.0558033 0.109879 0.797194 
0.057009 0.109724 0.796194 
0.0582109 0.10957 0.795194 
0.059409 0.109416 0.794194 
0.0606033 0.109262 0.793194 
0.0617938 0.109107 0.792194 
0.0632109 0.109107 0.792194 
0.0643957 0.108953 0.791194 
0.0655766 0.108799 0.790194 
0.0667538 0.108644 0.789194 
0.0679271 0.10849 0.788194 
0.0690966 0.108336 0.787194 
0.0702624 0.108182 0.786194 
0.0716681 0.108182 0.786194 
0.0728281 0.108027 0.785194 
0.0739843 0.107873 0.784194 
0.0751366 0.107719 0.783194 
0.0742738 0.10633 0.774194 
0.07515 0.106022 0.772194 
0.076529 0.106022 0.772194 
0.0776509 0.105867 0.771194 
0.0790281 0.105867 0.771194 
0.0804052 0.105867 0.771194 
0.0820452 0.106022 0.772194 
0.0884547 0.108953 0.791194 
0.0904033 0.109262 0.793194 
0.0923595 0.10957 0.795194 
0.0943233 0.109879 0.797194 
0.0962947 0.110187 0.799194 
0.0982738 0.110496 0.801194 
0.10026 0.110804 0.803194 
0.102255 0.111113 0.805194 
0.103977 0.111267 0.806194 
0.10542 0.111267 0.806194 
0.107148 0.111422 0.807194 
0.108879 0.111576 0.808194 
0.110327 0.111576 0.808194 
-0.222092 0.110993 0.795194 
-0.220519 0.110837 0.794194 
-0.219098 0.110837 0.794194 
-0.21753 0.110681 0.793194 
-0.216111 0.110681 0.793194 
-0.214549 0.110524 0.792194 
-0.213132 0.110524 0.792194 
-0.211576 0.110368 0.791194 
-0.210023 0.110212 0.790194 
-0.20861 0.110212 0.790194 
-0.207197 0.110212 0.790194 
-0.205783 0.110212 0.790194 
-0.20437 0.110212 0.790194 
-0.202957 0.110212 0.790194 
-0.201543 0.110212 0.790194 
-0.20013 0.110212 0.790194 
-0.198839 0.110368 0.791194 
-0.197423 0.110368 0.791194 
-0.196008 0.110368 0.791194 
-0.194593 0.110368 0.791194 
-0.193292 0.110524 0.792194 
-0.191875 0.110524 0.792194 
-0.190458 0.110524 0.792194 
-0.189041 0.110524 0.792194 
-0.187623 0.110524 0.792194 
-0.186311 0.110681 0.793194 
-0.184892 0.110681 0.793194 
-0.183473 0.110681 0.793194 
-0.182054 0.110681 0.793194 
-0.180732 0.110837 0.794194 
-0.179311 0.110837 0.794194 
-0.177983 0.110993 0.795194 
-0.176561 0.110993 0.795194 
-0.175227 0.111149 0.796194 
-0.173802 0.111149 0.796194 
-0.172549 0.111462 0.798194 
-0.145025 0.114898 0.820194 
-0.143463 0.114585 0.818194 
-0.141997 0.114585 0.818194 
-0.14053 0.114585 0.818194 
-0.139063 0.114585 0.818194 
-0.137597 0.114585 0.818194 
-0.136094 0.114429 0.817194 
-0.134629 0.114429 0.817194 
-0.133164 0.114429 0.817194 
-0.1317 0.114429 0.817194 
-0.130263 0.114585 0.818194 
-0.0156157 0.113023 0.808194 
-0.0142919 0.112867 0.807194 
-0.0128462 0.112867 0.807194 
-0.0114005 0.112867 0.807194 
-0.00995479 0.112867 0.807194 
-0.00837766 0.113023 0.808194 
0.0431404 0.117241 0.835194 
0.0446395 0.117241 0.835194 
0.0400566 0.112399 0.804194 
0.0414966 0.112399 0.804194 
0.0427366 0.112243 0.803194 
0.0441747 0.112243 0.803194 
0.045409 0.112086 0.802194 
0.0468452 0.112086 0.802194 
0.0480738 0.11193 0.801194 
0.0495081 0.11193 0.801194 
0.0507309 0.111774 0.800194 
0.05195 0.111618 0.799194 
0.0531652 0.111462 0.798194 
0.0543766 0.111305 0.797194 
0.0555843 0.111149 0.796194 
0.0567881 0.110993 0.795194 
0.0582109 0.110993 0.795194 
0.059409 0.110837 0.794194 
0.0606033 0.110681 0.793194 
0.0617938 0.110524 0.792194 
0.0629804 0.110368 0.791194 
0.0641633 0.110212 0.790194 
0.0655766 0.110212 0.790194 
0.0667538 0.110056 0.789194 
0.0679271 0.1099 0.788194 
0.0690966 0.109743 0.787194 
0.0702624 0.109587 0.786194 
0.0714243 0.109431 0.785194 
0.0725823 0.109275 0.784194 
0.0737366 0.109119 0.783194 
0.0748871 0.108963 0.782194 
0.0742738 0.107713 0.774194 
0.07515 0.107401 0.772194 
0.0762738 0.107244 0.771194 
0.0776509 0.107244 0.771194 
0.0790281 0.107244 0.771194 
0.0804052 0.107244 0.771194 
0.0820452 0.107401 0.772194 
0.08819 0.110212 0.790194 
0.0901366 0.110524 0.792194 
0.0923595 0.110993 0.795194 
0.0940528 0.111149 0.796194 
0.0960224 0.111462 0.798194 
0.0979995 0.111774 0.800194 
0.10026 0.112243 0.803194 
0.101977 0.112399 0.804194 
0.103697 0.112555 0.805194 
0.10542 0.112711 0.806194 
0.106864 0.112711 0.806194 
0.108308 0.112711 0.806194 
0.11004 0.112867 0.807194 
0.112064 0.11318 0.809194 
-0.222092 0.112416 0.795194 
-0.220519 0.112258 0.794194 
-0.218949 0.1121 0.793194 
-0.217383 0.111942 0.792194 
-0.215966 0.111942 0.792194 
-0.214406 0.111783 0.791194 
-0.212991 0.111783 0.791194 
-0.211437 0.111625 0.790194 
-0.209886 0.111467 0.789194 
-0.208475 0.111467 0.789194 
-0.20693 0.111309 0.788194 
-0.205521 0.111309 0.788194 
-0.204241 0.111467 0.789194 
-0.202829 0.111467 0.789194 
-0.201418 0.111467 0.789194 
-0.200006 0.111467 0.789194 
-0.198595 0.111467 0.789194 
-0.197303 0.111625 0.790194 
-0.19589 0.111625 0.790194 
-0.194477 0.111625 0.790194 
-0.193063 0.111625 0.790194 
-0.19165 0.111625 0.790194 
-0.190347 0.111783 0.791194 
-0.188932 0.111783 0.791194 
-0.187517 0.111783 0.791194 
-0.186101 0.111783 0.791194 
-0.184789 0.111942 0.792194 
-0.183372 0.111942 0.792194 
-0.181955 0.111942 0.792194 
-0.180635 0.1121 0.793194 
-0.179216 0.1121 0.793194 
-0.17789 0.112258 0.794194 
-0.176469 0.112258 0.794194 
-0.175138 0.112416 0.795194 
-0.173802 0.112574 0.796194 
-0.143418 0.115894 0.817194 
-0.141953 0.115894 0.817194 
-0.140488 0.115894 0.817194 
-0.139023 0.115894 0.817194 
-0.137559 0.115894 0.817194 
-0.136094 0.115894 0.817194 
-0.134629 0.115894 0.817194 
-0.133164 0.115894 0.817194 
-0.131669 0.115736 0.816194 
-0.130206 0.115736 0.816194 
-0.0200748 0.114313 0.807194 
-0.0187472 0.114155 0.806194 
-0.0173034 0.114155 0.806194 
-0.0158596 0.114155 0.806194 
-0.0144158 0.114155 0.806194 
-0.0130977 0.113997 0.805194 
-0.0115281 0.114155 0.806194 
-0.0100843 0.114155 0.806194 
-0.00864051 0.114155 0.806194 
-0.00706337 0.114313 0.807194 
0.0431404 0.11874 0.835194 
0.0446395 0.11874 0.835194 
0.0400566 0.113839 0.804194 
0.0414966 0.113839 0.804194 
0.0427366 0.113681 0.803194 
0.0441747 0.113681 0.803194 
0.045409 0.113523 0.802194 
0.0468452 0.113523 0.802194 
0.0480738 0.113364 0.801194 
0.0495081 0.113364 0.801194 
0.0507309 0.113206 0.800194 
0.05195 0.113048 0.799194 
0.0531652 0.11289 0.798194 
0.0543766 0.112732 0.797194 
0.0555843 0.112574 0.796194 
0.0567881 0.112416 0.795194 
0.0579881 0.112258 0.794194 
0.059409 0.112258 0.794194 
0.0606033 0.1121 0.793194 
0.0617938 0.111942 0.792194 
0.0629804 0.111783 0.791194 
0.0641633 0.111625 0.790194 
0.0653424 0.111467 0.789194 
0.0667538 0.111467 0.789194 
0.0679271 0.111309 0.788194 
0.0690966 0.111151 0.787194 
0.0702624 0.110993 0.786194 
0.0716681 0.110993 0.786194 
0.0728281 0.110835 0.785194 
0.0737366 0.110519 0.783194 
0.0746376 0.110203 0.781194 
0.0740224 0.108938 0.773194 
0.07515 0.10878 0.772194 
0.0762738 0.108622 0.771194 
0.0776509 0.108622 0.771194 
0.0790281 0.108622 0.771194 
0.0804052 0.108622 0.771194 
0.0817824 0.108622 0.771194 
0.08819 0.111625 0.790194 
0.0901366 0.111942 0.792194 
0.0920909 0.112258 0.794194 
0.0940528 0.112574 0.796194 
0.0960224 0.11289 0.798194 
0.0979995 0.113206 0.800194 
0.0999842 0.113523 0.802194 
0.101977 0.113839 0.804194 
0.103697 0.113997 0.805194 
0.105139 0.113997 0.805194 
0.10658 0.113997 0.805194 
0.107737 0.113839 0.804194 
0.109177 0.113839 0.804194 
0.110906 0.113997 0.805194 
0.112639 0.114155 0.806194 
0.114083 0.114155 0.806194 
0.115822 0.114313 0.807194 
-0.22194 0.113679 0.794194 
-0.220368 0.113519 0.793194 
-0.218949 0.113519 0.793194 
-0.217383 0.113359 0.792194 
-0.215821 0.113199 0.791194 
-0.214263 0.113039 0.790194 
-0.21285 0.113039 0.790194 
-0.211437 0.113039 0.790194 
-0.209886 0.112879 0.789194 
-0.20834 0.112719 0.788194 
-0.206797 0.112559 0.787194 
-0.205389 0.112559 0.787194 
-0.203981 0.112559 0.787194 
-0.202574 0.112559 0.787194 
-0.201292 0.112719 0.788194 
-0.199882 0.112719 0.788194 
-0.198473 0.112719 0.788194 
-0.197063 0.112719 0.788194 
-0.195654 0.112719 0.788194 
-0.194361 0.112879 0.789194 
-0.192949 0.112879 0.789194 
-0.191538 0.112879 0.789194 
-0.190126 0.112879 0.789194 
-0.188823 0.113039 0.790194 
-0.18741 0.113039 0.790194 
-0.185997 0.113039 0.790194 
-0.184583 0.113039 0.790194 
-0.183271 0.113199 0.791194 
-0.181856 0.113199 0.791194 
-0.180538 0.113359 0.792194 
-0.179216 0.113519 0.793194 
-0.177797 0.113519 0.793194 
-0.176469 0.113679 0.794194 
-0.175138 0.113839 0.795194 
-0.173802 0.113999 0.796194 
-0.143372 0.117199 0.816194 
-0.141909 0.117199 0.816194 
-0.140488 0.117359 0.817194 
-0.139023 0.117359 0.817194 
-0.137559 0.117359 0.817194 
-0.136094 0.117359 0.817194 
-0.134629 0.117359 0.817194 
-0.133132 0.117199 0.816194 
-0.131669 0.117199 0.816194 
-0.130178 0.117039 0.815194 
-0.128823 0.117679 0.819194 
-0.0245224 0.115599 0.806194 
-0.0230786 0.115599 0.806194 
-0.0217491 0.115439 0.805194 
-0.0203072 0.115439 0.805194 
-0.0188653 0.115439 0.805194 
-0.0174234 0.115439 0.805194 
-0.0159815 0.115439 0.805194 
-0.0145396 0.115439 0.805194 
-0.0132234 0.115279 0.804194 
-0.0116558 0.115439 0.805194 
-0.0102138 0.115439 0.805194 
-0.00864051 0.115599 0.806194 
-0.00719671 0.115599 0.806194 
-0.00561765 0.115759 0.807194 
0.0431404 0.120239 0.835194 
0.0446395 0.120239 0.835194 
0.0400566 0.115279 0.804194 
0.0412985 0.115119 0.803194 
0.0427366 0.115119 0.803194 
0.0439728 0.114959 0.802194 
0.045409 0.114959 0.802194 
0.0468452 0.114959 0.802194 
0.0480738 0.114799 0.801194 
0.0495081 0.114799 0.801194 
0.0507309 0.114639 0.800194 
0.05195 0.114479 0.799194 
0.0531652 0.114319 0.798194 
0.0543766 0.114159 0.797194 
0.0555843 0.113999 0.796194 
0.0567881 0.113839 0.795194 
0.0579881 0.113679 0.794194 
0.0591843 0.113519 0.793194 
0.0606033 0.113519 0.793194 
0.0617938 0.113359 0.792194 
0.0629804 0.113199 0.791194 
0.0641633 0.113039 0.790194 
0.0653424 0.112879 0.789194 
0.0665176 0.112719 0.788194 
0.0679271 0.112719 0.788194 
0.0690966 0.112559 0.787194 
0.0702624 0.112399 0.786194 
0.0716681 0.112399 0.786194 
0.0728281 0.112239 0.785194 
0.0739843 0.112079 0.784194 
0.0746376 0.111599 0.781194 
0.0740224 0.110319 0.773194 
0.07515 0.110159 0.772194 
0.0762738 0.109999 0.771194 
0.0776509 0.109999 0.771194 
0.0790281 0.109999 0.771194 
0.0804052 0.109999 0.771194 
0.0817824 0.109999 0.771194 
0.083689 0.110319 0.773194 
0.0901366 0.113359 0.792194 
0.0920909 0.113679 0.794194 
0.0940528 0.113999 0.796194 
0.0960224 0.114319 0.798194 
0.0979995 0.114639 0.800194 
0.0999842 0.114959 0.802194 
0.101977 0.115279 0.804194 
0.103697 0.115439 0.805194 
0.105139 0.115439 0.805194 
0.106297 0.115279 0.804194 
0.107737 0.115279 0.804194 
0.109177 0.115279 0.804194 
0.110906 0.115439 0.805194 
0.112348 0.115439 0.805194 
0.114083 0.115599 0.806194 
0.115527 0.115599 0.806194 
0.116971 0.115599 0.806194 
0.118415 0.115599 0.806194 
-0.221787 0.114938 0.793194 
-0.220368 0.114938 0.793194 
-0.218801 0.114776 0.792194 
-0.217237 0.114614 0.791194 
-0.215677 0.114452 0.790194 
-0.214263 0.114452 0.790194 
-0.212709 0.11429 0.789194 
-0.211298 0.11429 0.789194 
-0.209749 0.114128 0.788194 
-0.208204 0.113966 0.787194 
-0.206663 0.113804 0.786194 
-0.205258 0.113804 0.786194 
-0.203852 0.113804 0.786194 
-0.202446 0.113804 0.786194 
-0.201041 0.113804 0.786194 
-0.199635 0.113804 0.786194 
-0.198351 0.113966 0.787194 
-0.196943 0.113966 0.787194 
-0.195536 0.113966 0.787194 
-0.194128 0.113966 0.787194 
-0.192721 0.113966 0.787194 
-0.191425 0.114128 0.788194 
-0.190016 0.114128 0.788194 
-0.188606 0.114128 0.788194 
-0.187303 0.11429 0.789194 
-0.185892 0.11429 0.789194 
-0.184481 0.11429 0.789194 
-0.18317 0.114452 0.790194 
-0.181856 0.114614 0.791194 
-0.180441 0.114614 0.791194 
-0.179121 0.114776 0.792194 
-0.177797 0.114938 0.793194 
-0.176469 0.1151 0.794194 
-0.175048 0.1151 0.794194 
-0.173715 0.115262 0.795194 
-0.143326 0.1185 0.815194 
-0.141909 0.118662 0.816194 
-0.140488 0.118823 0.817194 
-0.139023 0.118823 0.817194 
-0.137559 0.118823 0.817194 
-0.136094 0.118823 0.817194 
-0.134595 0.118662 0.816194 
-0.133132 0.118662 0.816194 
-0.131669 0.118662 0.816194 
-0.130206 0.118662 0.816194 
-0.128797 0.118985 0.818194 
-0.0288538 0.117043 0.806194 
-0.0275167 0.116881 0.805194 
-0.0260748 0.116881 0.805194 
-0.0246329 0.116881 0.805194 
-0.0233034 0.116719 0.804194 
-0.0218634 0.116719 0.804194 
-0.0204234 0.116719 0.804194 
-0.0189834 0.116719 0.804194 
-0.0175434 0.116719 0.804194 
-0.0161034 0.116719 0.804194 
-0.0146634 0.116719 0.804194 
-0.0132234 0.116719 0.804194 
-0.0117834 0.116719 0.804194 
-0.0103434 0.116719 0.804194 
-0.00877194 0.116881 0.805194 
-0.00733005 0.116881 0.805194 
-0.00575289 0.117043 0.806194 
0.0429481 0.121576 0.834194 
0.0444452 0.121576 0.834194 
0.0400566 0.116719 0.804194 
0.0412985 0.116557 0.803194 
0.0427366 0.116557 0.803194 
0.0439728 0.116395 0.802194 
0.045409 0.116395 0.802194 
0.0466395 0.116233 0.801194 
0.0480738 0.116233 0.801194 
0.0492985 0.116071 0.800194 
0.0505195 0.115909 0.799194 
0.0517366 0.115747 0.798194 
0.05295 0.115585 0.797194 
0.0541595 0.115423 0.796194 
0.0555843 0.115423 0.796194 
0.0567881 0.115262 0.795194 
0.0579881 0.1151 0.794194 
0.0591843 0.114938 0.793194 
0.0603766 0.114776 0.792194 
0.0617938 0.114776 0.792194 
0.0629804 0.114614 0.791194 
0.0641633 0.114452 0.790194 
0.0653424 0.11429 0.789194 
0.0665176 0.114128 0.788194 
0.0679271 0.114128 0.788194 
0.0690966 0.113966 0.787194 
0.0705042 0.113966 0.787194 
0.0716681 0.113804 0.786194 
0.0728281 0.113643 0.785194 
0.0739843 0.113481 0.784194 
0.0753862 0.113481 0.784194 
0.0742738 0.111862 0.774194 
0.07515 0.111538 0.772194 
0.076529 0.111538 0.772194 
0.0804795 0.113157 0.782194 
0.0821366 0.113319 0.783194 
0.0806662 0.111538 0.772194 
0.0820452 0.111538 0.772194 
0.083689 0.1117 0.773194 
0.0901366 0.114776 0.792194 
0.0920909 0.1151 0.794194 
0.0940528 0.115423 0.796194 
0.0960224 0.115747 0.798194 
0.0979995 0.116071 0.800194 
0.0999842 0.116395 0.802194 
0.101699 0.116557 0.803194 
0.103417 0.116719 0.804194 
0.105139 0.116881 0.805194 
0.10658 0.116881 0.805194 
0.108022 0.116881 0.805194 
0.109752 0.117043 0.806194 
0.111485 0.117204 0.807194 
0.112931 0.117204 0.807194 
0.114377 0.117204 0.807194 
-0.221787 0.116357 0.793194 
-0.220218 0.116193 0.792194 
-0.218652 0.116029 0.791194 
-0.217237 0.116029 0.791194 
-0.215677 0.115865 0.790194 
-0.214121 0.115702 0.789194 
-0.212568 0.115538 0.788194 
-0.211159 0.115538 0.788194 
-0.209612 0.115374 0.787194 
-0.208204 0.115374 0.787194 
-0.206663 0.11521 0.786194 
-0.205126 0.115046 0.785194 
-0.203722 0.115046 0.785194 
-0.202319 0.115046 0.785194 
-0.200915 0.115046 0.785194 
-0.199511 0.115046 0.785194 
-0.198107 0.115046 0.785194 
-0.196703 0.115046 0.785194 
-0.195418 0.11521 0.786194 
-0.194012 0.11521 0.786194 
-0.192606 0.11521 0.786194 
-0.191201 0.11521 0.786194 
-0.189905 0.115374 0.787194 
-0.188498 0.115374 0.787194 
-0.18709 0.115374 0.787194 
-0.185787 0.115538 0.788194 
-0.184481 0.115702 0.789194 
-0.183069 0.115702 0.789194 
-0.181757 0.115865 0.790194 
-0.180441 0.116029 0.791194 
-0.179121 0.116193 0.792194 
-0.177703 0.116193 0.792194 
-0.176378 0.116357 0.793194 
-0.175048 0.116521 0.794194 
-0.173715 0.116684 0.795194 
-0.143372 0.120124 0.816194 
-0.141953 0.120288 0.817194 
-0.140488 0.120288 0.817194 
-0.139023 0.120288 0.817194 
-0.137559 0.120288 0.817194 
-0.136094 0.120288 0.817194 
-0.134595 0.120124 0.816194 
-0.133132 0.120124 0.816194 
-0.131669 0.120124 0.816194 
-0.130235 0.120288 0.817194 
-0.128797 0.120452 0.818194 
-0.0347262 0.118323 0.805194 
-0.0332843 0.118323 0.805194 
-0.0319434 0.118159 0.804194 
-0.0305034 0.118159 0.804194 
-0.0290634 0.118159 0.804194 
-0.0276234 0.118159 0.804194 
-0.0261834 0.118159 0.804194 
-0.0247434 0.118159 0.804194 
-0.0234158 0.117995 0.803194 
-0.0219777 0.117995 0.803194 
-0.0205396 0.117995 0.803194 
-0.0191015 0.117995 0.803194 
-0.0176634 0.117995 0.803194 
-0.0162253 0.117995 0.803194 
-0.0147872 0.117995 0.803194 
-0.0133491 0.117995 0.803194 
-0.011911 0.117995 0.803194 
-0.0103434 0.118159 0.804194 
-0.00890337 0.118159 0.804194 
-0.00733005 0.118323 0.805194 
-0.00575289 0.118486 0.806194 
0.0429481 0.123073 0.834194 
0.0444452 0.123073 0.834194 
0.0400566 0.118159 0.804194 
0.0412985 0.117995 0.803194 
0.0427366 0.117995 0.803194 
0.0439728 0.117831 0.802194 
0.045409 0.117831 0.802194 
0.0466395 0.117667 0.801194 
0.0480738 0.117667 0.801194 
0.0492985 0.117503 0.800194 
0.0505195 0.11734 0.799194 
0.0517366 0.117176 0.798194 
0.05295 0.117012 0.797194 
0.0541595 0.116848 0.796194 
0.0553652 0.116684 0.795194 
0.0567881 0.116684 0.795194 
0.0579881 0.116521 0.794194 
0.0591843 0.116357 0.793194 
0.0603766 0.116193 0.792194 
0.0615652 0.116029 0.791194 
0.0629804 0.116029 0.791194 
0.0641633 0.115865 0.790194 
0.0653424 0.115702 0.789194 
0.0665176 0.115538 0.788194 
0.0679271 0.115538 0.788194 
0.0690966 0.115374 0.787194 
0.0705042 0.115374 0.787194 
0.0716681 0.11521 0.786194 
0.0730738 0.11521 0.786194 
0.0742319 0.115046 0.785194 
0.0756357 0.115046 0.785194 
0.0767881 0.114883 0.784194 
0.07819 0.114883 0.784194 
0.0795919 0.114883 0.784194 
0.0812509 0.115046 0.785194 
0.0831728 0.115374 0.787194 
0.0848414 0.115538 0.788194 
0.0865138 0.115702 0.789194 
0.08819 0.115865 0.790194 
0.08987 0.116029 0.791194 
0.0918224 0.116357 0.793194 
0.0937824 0.116684 0.795194 
0.09575 0.117012 0.797194 
0.0977252 0.11734 0.799194 
0.0997081 0.117667 0.801194 
0.101699 0.117995 0.803194 
0.103417 0.118159 0.804194 
0.105139 0.118323 0.805194 
0.10658 0.118323 0.805194 
0.108308 0.118486 0.806194 
0.11004 0.11865 0.807194 
0.111775 0.118814 0.808194 
-0.221635 0.11761 0.792194 
-0.220218 0.11761 0.792194 
-0.218652 0.117444 0.791194 
-0.21709 0.117279 0.790194 
-0.215532 0.117113 0.789194 
-0.214121 0.117113 0.789194 
-0.212568 0.116947 0.788194 
-0.21102 0.116782 0.787194 
-0.209612 0.116782 0.787194 
-0.208069 0.116616 0.786194 
-0.20653 0.11645 0.785194 
-0.204995 0.116284 0.784194 
-0.203593 0.116284 0.784194 
-0.202063 0.116119 0.783194 
-0.200663 0.116119 0.783194 
-0.199387 0.116284 0.784194 
-0.197985 0.116284 0.784194 
-0.196583 0.116284 0.784194 
-0.195181 0.116284 0.784194 
-0.19378 0.116284 0.784194 
-0.192492 0.11645 0.785194 
-0.191088 0.11645 0.785194 
-0.189684 0.11645 0.785194 
-0.188389 0.116616 0.786194 
-0.18709 0.116782 0.787194 
-0.185682 0.116782 0.787194 
-0.184378 0.116947 0.788194 
-0.183069 0.117113 0.789194 
-0.181757 0.117279 0.790194 
-0.180343 0.117279 0.790194 
-0.179025 0.117444 0.791194 
-0.177703 0.11761 0.792194 
-0.176378 0.117776 0.793194 
-0.175048 0.117942 0.794194 
-0.173715 0.118107 0.795194 
-0.143418 0.121753 0.817194 
-0.141953 0.121753 0.817194 
-0.140488 0.121753 0.817194 
-0.139023 0.121753 0.817194 
-0.137559 0.121753 0.817194 
-0.136094 0.121753 0.817194 
-0.134629 0.121753 0.817194 
-0.133132 0.121587 0.816194 
-0.131669 0.121587 0.816194 
-0.130235 0.121753 0.817194 
-0.128797 0.121919 0.818194 
-0.0432919 0.11993 0.806194 
-0.0419358 0.119764 0.805194 
-0.0404938 0.119764 0.805194 
-0.0391434 0.119599 0.804194 
-0.0377034 0.119599 0.804194 
-0.0362634 0.119599 0.804194 
-0.0348234 0.119599 0.804194 
-0.0334824 0.119433 0.803194 
-0.0320443 0.119433 0.803194 
-0.0306062 0.119433 0.803194 
-0.0291681 0.119433 0.803194 
-0.02773 0.119433 0.803194 
-0.0262919 0.119433 0.803194 
-0.0248538 0.119433 0.803194 
-0.0235281 0.119267 0.802194 
-0.0220919 0.119267 0.802194 
-0.0206558 0.119267 0.802194 
-0.0192196 0.119267 0.802194 
-0.0177834 0.119267 0.802194 
-0.0163472 0.119267 0.802194 
-0.014911 0.119267 0.802194 
-0.0134748 0.119267 0.802194 
-0.0120386 0.119267 0.802194 
-0.0104729 0.119433 0.803194 
-0.0090348 0.119433 0.803194 
-0.00746337 0.119599 0.804194 
-0.00588813 0.119764 0.805194 
0.0429481 0.12457 0.834194 
0.0444452 0.12457 0.834194 
0.0400566 0.119599 0.804194 
0.0412985 0.119433 0.803194 
0.0425366 0.119267 0.802194 
0.0439728 0.119267 0.802194 
0.0452052 0.119102 0.801194 
0.0466395 0.119102 0.801194 
0.0478662 0.118936 0.800194 
0.0492985 0.118936 0.800194 
0.0505195 0.11877 0.799194 
0.0517366 0.118604 0.798194 
0.05295 0.118439 0.797194 
0.0541595 0.118273 0.796194 
0.0553652 0.118107 0.795194 
0.0565671 0.117942 0.794194 
0.0579881 0.117942 0.794194 
0.0591843 0.117776 0.793194 
0.0603766 0.11761 0.792194 
0.0615652 0.117444 0.791194 
0.06275 0.117279 0.790194 
0.0641633 0.117279 0.790194 
0.0653424 0.117113 0.789194 
0.0667538 0.117113 0.789194 
0.0679271 0.116947 0.788194 
0.0690966 0.116782 0.787194 
0.0705042 0.116782 0.787194 
0.0716681 0.116616 0.786194 
0.0730738 0.116616 0.786194 
0.0742319 0.11645 0.785194 
0.0756357 0.11645 0.785194 
0.0770395 0.11645 0.785194 
0.0784433 0.11645 0.785194 
0.0798471 0.11645 0.785194 
0.0815081 0.116616 0.786194 
0.0831728 0.116782 0.787194 
0.0848414 0.116947 0.788194 
0.0865138 0.117113 0.789194 
0.08819 0.117279 0.790194 
0.08987 0.117444 0.791194 
0.0918224 0.117776 0.793194 
0.0937824 0.118107 0.795194 
0.09575 0.118439 0.797194 
0.0977252 0.11877 0.799194 
0.0997081 0.119102 0.801194 
0.101699 0.119433 0.803194 
0.103417 0.119599 0.804194 
0.105139 0.119764 0.805194 
0.10658 0.119764 0.805194 
0.108308 0.11993 0.806194 
0.11004 0.120096 0.807194 
0.111775 0.120262 0.808194 
-0.221635 0.119027 0.792194 
-0.220067 0.11886 0.791194 
-0.218503 0.118692 0.790194 
-0.21709 0.118692 0.790194 
-0.215532 0.118524 0.789194 
-0.213978 0.118357 0.788194 
-0.212427 0.118189 0.787194 
-0.210881 0.118022 0.786194 
-0.209475 0.118022 0.786194 
-0.207934 0.117854 0.785194 
-0.20653 0.117854 0.785194 
-0.204995 0.117686 0.784194 
-0.203463 0.117519 0.783194 
-0.201936 0.117351 0.782194 
-0.200538 0.117351 0.782194 
-0.19914 0.117351 0.782194 
-0.197741 0.117351 0.782194 
-0.196463 0.117519 0.783194 
-0.195063 0.117519 0.783194 
-0.193663 0.117519 0.783194 
-0.192378 0.117686 0.784194 
-0.190976 0.117686 0.784194 
-0.189684 0.117854 0.785194 
-0.188281 0.117854 0.785194 
-0.186983 0.118022 0.786194 
-0.185682 0.118189 0.787194 
-0.184378 0.118357 0.788194 
-0.182968 0.118357 0.788194 
-0.181658 0.118524 0.789194 
-0.180343 0.118692 0.790194 
-0.179025 0.11886 0.791194 
-0.177703 0.119027 0.792194 
-0.176378 0.119195 0.793194 
-0.175048 0.119363 0.794194 
-0.143418 0.123218 0.817194 
-0.141953 0.123218 0.817194 
-0.140488 0.123218 0.817194 
-0.139023 0.123218 0.817194 
-0.137559 0.123218 0.817194 
-0.136094 0.123218 0.817194 
-0.134595 0.12305 0.816194 
-0.133164 0.123218 0.817194 
-0.131669 0.12305 0.816194 
-0.130235 0.123218 0.817194 
-0.12877 0.123218 0.817194 
-0.0491453 0.121206 0.805194 
-0.0477834 0.121039 0.804194 
-0.0463434 0.121039 0.804194 
-0.0449034 0.121039 0.804194 
-0.0434634 0.121039 0.804194 
-0.042111 0.120871 0.803194 
-0.0406729 0.120871 0.803194 
-0.0392348 0.120871 0.803194 
-0.0377967 0.120871 0.803194 
-0.0363586 0.120871 0.803194 
-0.0349205 0.120871 0.803194 
-0.0335815 0.120703 0.802194 
-0.0321453 0.120703 0.802194 
-0.0307091 0.120703 0.802194 
-0.0292729 0.120703 0.802194 
-0.0278367 0.120703 0.802194 
-0.0264005 0.120703 0.802194 
-0.0249643 0.120703 0.802194 
-0.0236405 0.120536 0.801194 
-0.0222062 0.120536 0.801194 
-0.0207719 0.120536 0.801194 
-0.0193377 0.120536 0.801194 
-0.0179034 0.120536 0.801194 
-0.0164691 0.120536 0.801194 
-0.0150348 0.120536 0.801194 
-0.0136005 0.120536 0.801194 
-0.0120386 0.120703 0.802194 
-0.0106024 0.120703 0.802194 
-0.0090348 0.120871 0.803194 
-0.00746337 0.121039 0.804194 
-0.00588813 0.121206 0.805194 
0.0429481 0.126067 0.834194 
0.0442509 0.1259 0.833194 
0.0400566 0.121039 0.804194 
0.0412985 0.120871 0.803194 
0.0425366 0.120703 0.802194 
0.0439728 0.120703 0.802194 
0.0452052 0.120536 0.801194 
0.0466395 0.120536 0.801194 
0.0478662 0.120368 0.800194 
0.049089 0.120201 0.799194 
0.0505195 0.120201 0.799194 
0.0517366 0.120033 0.798194 
0.05295 0.119865 0.797194 
0.0541595 0.119698 0.796194 
0.0553652 0.11953 0.795194 
0.0565671 0.119363 0.794194 
0.0577652 0.119195 0.793194 
0.0591843 0.119195 0.793194 
0.0603766 0.119027 0.792194 
0.0615652 0.11886 0.791194 
0.06275 0.118692 0.790194 
0.0641633 0.118692 0.790194 
0.0653424 0.118524 0.789194 
0.0667538 0.118524 0.789194 
0.0679271 0.118357 0.788194 
0.0693366 0.118357 0.788194 
0.0705042 0.118189 0.787194 
0.0719119 0.118189 0.787194 
0.0730738 0.118022 0.786194 
0.0744795 0.118022 0.786194 
0.0758852 0.118022 0.786194 
0.0770395 0.117854 0.785194 
0.0784433 0.117854 0.785194 
0.0801023 0.118022 0.786194 
0.0815081 0.118022 0.786194 
0.0831728 0.118189 0.787194 
0.0848414 0.118357 0.788194 
0.0865138 0.118524 0.789194 
0.08819 0.118692 0.790194 
0.08987 0.11886 0.791194 
0.0918224 0.119195 0.793194 
0.0937824 0.11953 0.795194 
0.09575 0.119865 0.797194 
0.0977252 0.120201 0.799194 
0.0997081 0.120536 0.801194 
0.101699 0.120871 0.803194 
0.103417 0.121039 0.804194 
0.105139 0.121206 0.805194 
0.10658 0.121206 0.805194 
0.108308 0.121374 0.806194 
0.11004 0.121542 0.807194 
0.111775 0.121709 0.808194 
-0.221482 0.120275 0.791194 
-0.220067 0.120275 0.791194 
-0.218503 0.120105 0.790194 
-0.216943 0.119936 0.789194 
-0.215387 0.119766 0.788194 
-0.213835 0.119597 0.787194 
-0.212427 0.119597 0.787194 
-0.210881 0.119427 0.786194 
-0.209338 0.119258 0.785194 
-0.207934 0.119258 0.785194 
-0.206397 0.119088 0.784194 
-0.204863 0.118919 0.783194 
-0.203334 0.118749 0.782194 
-0.201808 0.11858 0.781194 
-0.200412 0.11858 0.781194 
-0.199016 0.11858 0.781194 
-0.19762 0.11858 0.781194 
-0.196223 0.11858 0.781194 
-0.194945 0.118749 0.782194 
-0.193547 0.118749 0.782194 
-0.192263 0.118919 0.783194 
-0.190863 0.118919 0.783194 
-0.189574 0.119088 0.784194 
-0.188281 0.119258 0.785194 
-0.186983 0.119427 0.786194 
-0.185578 0.119427 0.786194 
-0.184275 0.119597 0.787194 
-0.182968 0.119766 0.788194 
-0.181658 0.119936 0.789194 
-0.180343 0.120105 0.790194 
-0.179025 0.120275 0.791194 
-0.177703 0.120444 0.792194 
-0.176286 0.120444 0.792194 
-0.174959 0.120614 0.793194 
-0.143418 0.124683 0.817194 
-0.141909 0.124513 0.816194 
-0.140488 0.124683 0.817194 
-0.139023 0.124683 0.817194 
-0.137559 0.124683 0.817194 
-0.136094 0.124683 0.817194 
-0.134595 0.124513 0.816194 
-0.133132 0.124513 0.816194 
-0.131669 0.124513 0.816194 
-0.130206 0.124513 0.816194 
-0.12877 0.124683 0.817194 
-0.0520291 0.122648 0.805194 
-0.0506634 0.122479 0.804194 
-0.0492234 0.122479 0.804194 
-0.0478634 0.122309 0.803194 
-0.0464253 0.122309 0.803194 
-0.0449872 0.122309 0.803194 
-0.0435491 0.122309 0.803194 
-0.0421986 0.12214 0.802194 
-0.0407624 0.12214 0.802194 
-0.0393262 0.12214 0.802194 
-0.03789 0.12214 0.802194 
-0.0364539 0.12214 0.802194 
-0.0350177 0.12214 0.802194 
-0.0336805 0.12197 0.801194 
-0.0322462 0.12197 0.801194 
-0.0308119 0.12197 0.801194 
-0.0293777 0.12197 0.801194 
-0.0279434 0.12197 0.801194 
-0.0265091 0.12197 0.801194 
-0.0251853 0.121801 0.800194 
-0.0237529 0.121801 0.800194 
-0.0223205 0.121801 0.800194 
-0.0208881 0.121801 0.800194 
-0.0194558 0.121801 0.800194 
-0.0180234 0.121801 0.800194 
-0.016591 0.121801 0.800194 
-0.0151586 0.121801 0.800194 
-0.0137262 0.121801 0.800194 
-0.0121662 0.12197 0.801194 
-0.0107319 0.12197 0.801194 
-0.00916623 0.12214 0.802194 
-0.00759671 0.122309 0.803194 
-0.00602337 0.122479 0.804194 
0.0427557 0.127395 0.833194 
0.0442509 0.127395 0.833194 
0.0398604 0.122309 0.803194 
0.0411004 0.12214 0.802194 
0.0425366 0.12214 0.802194 
0.0437709 0.12197 0.801194 
0.0452052 0.12197 0.801194 
0.0466395 0.12197 0.801194 
0.0478662 0.121801 0.800194 
0.049089 0.121631 0.799194 
0.0503081 0.121462 0.798194 
0.0515233 0.121292 0.797194 
0.0527347 0.121123 0.796194 
0.0541595 0.121123 0.796194 
0.0553652 0.120953 0.795194 
0.0565671 0.120783 0.794194 
0.0577652 0.120614 0.793194 
0.0589595 0.120444 0.792194 
0.0603766 0.120444 0.792194 
0.0615652 0.120275 0.791194 
0.06275 0.120105 0.790194 
0.0641633 0.120105 0.790194 
0.0653424 0.119936 0.789194 
0.0667538 0.119936 0.789194 
0.0679271 0.119766 0.788194 
0.0693366 0.119766 0.788194 
0.0705042 0.119597 0.787194 
0.0719119 0.119597 0.787194 
0.0733195 0.119597 0.787194 
0.0744795 0.119427 0.786194 
0.0758852 0.119427 0.786194 
0.0772909 0.119427 0.786194 
0.0786966 0.119427 0.786194 
0.0801023 0.119427 0.786194 
0.0817652 0.119597 0.787194 
0.0834319 0.119766 0.788194 
0.0851024 0.119936 0.789194 
0.0867766 0.120105 0.790194 
0.08819 0.120105 0.790194 
0.08987 0.120275 0.791194 
0.0918224 0.120614 0.793194 
0.0937824 0.120953 0.795194 
0.09575 0.121292 0.797194 
0.0977252 0.121631 0.799194 
0.0997081 0.12197 0.801194 
0.101699 0.122309 0.803194 
0.103417 0.122479 0.804194 
0.104857 0.122479 0.804194 
0.10658 0.122648 0.805194 
0.108308 0.122818 0.806194 
0.11004 0.122987 0.807194 
0.111775 0.123157 0.808194 
-0.221482 0.12169 0.791194 
-0.219917 0.121519 0.790194 
-0.218355 0.121347 0.789194 
-0.216943 0.121347 0.789194 
-0.215387 0.121176 0.788194 
-0.213835 0.121004 0.787194 
-0.212286 0.120833 0.786194 
-0.210741 0.120662 0.785194 
-0.209338 0.120662 0.785194 
-0.207799 0.12049 0.784194 
-0.206263 0.120319 0.783194 
-0.204732 0.120147 0.782194 
-0.203334 0.120147 0.782194 
-0.201808 0.119976 0.781194 
-0.200286 0.119804 0.780194 
-0.198892 0.119804 0.780194 
-0.197498 0.119804 0.780194 
-0.196103 0.119804 0.780194 
-0.194827 0.119976 0.781194 
-0.193431 0.119976 0.781194 
-0.192149 0.120147 0.782194 
-0.190863 0.120319 0.783194 
-0.189574 0.12049 0.784194 
-0.188172 0.12049 0.784194 
-0.186877 0.120662 0.785194 
-0.185578 0.120833 0.786194 
-0.184275 0.121004 0.787194 
-0.182968 0.121176 0.788194 
-0.181658 0.121347 0.789194 
-0.180343 0.121519 0.790194 
-0.17893 0.121519 0.790194 
-0.17761 0.12169 0.791194 
-0.176286 0.121862 0.792194 
-0.174959 0.122033 0.793194 
-0.143418 0.126147 0.817194 
-0.141909 0.125976 0.816194 
-0.140446 0.125976 0.816194 
-0.139023 0.126147 0.817194 
-0.137559 0.126147 0.817194 
-0.136094 0.126147 0.817194 
-0.134595 0.125976 0.816194 
-0.133132 0.125976 0.816194 
-0.131669 0.125976 0.816194 
-0.130206 0.125976 0.816194 
-0.12877 0.126147 0.817194 
-0.053471 0.12409 0.805194 
-0.0521034 0.123919 0.804194 
-0.0507396 0.123747 0.803194 
-0.0493015 0.123747 0.803194 
-0.0479434 0.123576 0.802194 
-0.0465072 0.123576 0.802194 
-0.045071 0.123576 0.802194 
-0.0436348 0.123576 0.802194 
-0.0422862 0.123404 0.801194 
-0.0408519 0.123404 0.801194 
-0.0394177 0.123404 0.801194 
-0.0379834 0.123404 0.801194 
-0.0365491 0.123404 0.801194 
-0.0351148 0.123404 0.801194 
-0.0337796 0.123233 0.800194 
-0.0323472 0.123233 0.800194 
-0.0309148 0.123233 0.800194 
-0.0294824 0.123233 0.800194 
-0.02805 0.123233 0.800194 
-0.0266177 0.123233 0.800194 
-0.0252957 0.123062 0.799194 
-0.0238653 0.123062 0.799194 
-0.0224348 0.123062 0.799194 
-0.0210043 0.123062 0.799194 
-0.0195738 0.123062 0.799194 
-0.0181434 0.123062 0.799194 
-0.0167129 0.123062 0.799194 
-0.0152824 0.123062 0.799194 
-0.0137262 0.123233 0.800194 
-0.0122938 0.123233 0.800194 
-0.0107319 0.123404 0.801194 
-0.00916623 0.123576 0.802194 
-0.00759671 0.123747 0.803194 
-0.00615861 0.123747 0.803194 
0.0427557 0.12889 0.833194 
0.0442509 0.12889 0.833194 
0.0398604 0.123747 0.803194 
0.0411004 0.123576 0.802194 
0.0425366 0.123576 0.802194 
0.0437709 0.123404 0.801194 
0.0452052 0.123404 0.801194 
0.0464338 0.123233 0.800194 
0.0478662 0.123233 0.800194 
0.049089 0.123062 0.799194 
0.0503081 0.12289 0.798194 
0.0515233 0.122719 0.797194 
0.0527347 0.122547 0.796194 
0.0539423 0.122376 0.795194 
0.0553652 0.122376 0.795194 
0.0565671 0.122204 0.794194 
0.0577652 0.122033 0.793194 
0.0589595 0.121862 0.792194 
0.0603766 0.121862 0.792194 
0.0615652 0.12169 0.791194 
0.0629804 0.12169 0.791194 
0.0641633 0.121519 0.790194 
0.0653424 0.121347 0.789194 
0.0667538 0.121347 0.789194 
0.0681652 0.121347 0.789194 
0.0693366 0.121176 0.788194 
0.0707462 0.121176 0.788194 
0.0719119 0.121004 0.787194 
0.0733195 0.121004 0.787194 
0.0747271 0.121004 0.787194 
0.0761347 0.121004 0.787194 
0.0775423 0.121004 0.787194 
0.07895 0.121004 0.787194 
0.0803576 0.121004 0.787194 
0.0820223 0.121176 0.788194 
0.0834319 0.121176 0.788194 
0.0851024 0.121347 0.789194 
0.0867766 0.121519 0.790194 
0.0884547 0.12169 0.791194 
0.0901366 0.121862 0.792194 
0.0918224 0.122033 0.793194 
0.0935119 0.122204 0.794194 
0.0954776 0.122547 0.796194 
0.0974509 0.12289 0.798194 
0.0994319 0.123233 0.800194 
0.10142 0.123576 0.802194 
0.103137 0.123747 0.803194 
0.104857 0.123919 0.804194 
0.10658 0.12409 0.805194 
0.108308 0.124262 0.806194 
0.11004 0.124433 0.807194 
-0.22133 0.122932 0.790194 
-0.219917 0.122932 0.790194 
-0.218355 0.122759 0.789194 
-0.216797 0.122585 0.788194 
-0.215242 0.122412 0.787194 
-0.213692 0.122239 0.786194 
-0.212286 0.122239 0.786194 
-0.210741 0.122065 0.785194 
-0.209201 0.121892 0.784194 
-0.207663 0.121719 0.783194 
-0.206263 0.121719 0.783194 
-0.204732 0.121545 0.782194 
-0.203204 0.121372 0.781194 
-0.201681 0.121199 0.780194 
-0.200161 0.121025 0.779194 
-0.198768 0.121025 0.779194 
-0.197376 0.121025 0.779194 
-0.195983 0.121025 0.779194 
-0.194709 0.121199 0.780194 
-0.193431 0.121372 0.781194 
-0.192149 0.121545 0.782194 
-0.190751 0.121545 0.782194 
-0.189463 0.121719 0.783194 
-0.188172 0.121892 0.784194 
-0.186877 0.122065 0.785194 
-0.185578 0.122239 0.786194 
-0.184275 0.122412 0.787194 
-0.182968 0.122585 0.788194 
-0.181559 0.122585 0.788194 
-0.180246 0.122759 0.789194 
-0.17893 0.122932 0.790194 
-0.17761 0.123105 0.791194 
-0.176286 0.123279 0.792194 
-0.174959 0.123452 0.793194 
-0.143418 0.127612 0.817194 
-0.141865 0.127265 0.815194 
-0.140446 0.127439 0.816194 
-0.138983 0.127439 0.816194 
-0.131669 0.127439 0.816194 
-0.130178 0.127265 0.815194 
-0.128743 0.127439 0.816194 
-0.0535434 0.125359 0.804194 
-0.0521034 0.125359 0.804194 
-0.0507396 0.125185 0.803194 
-0.0493796 0.125012 0.802194 
-0.0479434 0.125012 0.802194 
-0.0465891 0.124839 0.801194 
-0.0451548 0.124839 0.801194 
-0.0437205 0.124839 0.801194 
-0.0423739 0.124665 0.800194 
-0.0409415 0.124665 0.800194 
-0.0395091 0.124665 0.800194 
-0.0380767 0.124665 0.800194 
-0.0366443 0.124665 0.800194 
-0.0353091 0.124492 0.799194 
-0.0338786 0.124492 0.799194 
-0.0324481 0.124492 0.799194 
-0.0310177 0.124492 0.799194 
-0.0295872 0.124492 0.799194 
-0.0281567 0.124492 0.799194 
-0.0267262 0.124492 0.799194 
-0.0254062 0.124319 0.798194 
-0.0239777 0.124319 0.798194 
-0.0225491 0.124319 0.798194 
-0.0211205 0.124319 0.798194 
-0.0196919 0.124319 0.798194 
-0.0182634 0.124319 0.798194 
-0.0168348 0.124319 0.798194 
-0.0154062 0.124319 0.798194 
-0.0138519 0.124492 0.799194 
-0.0122938 0.124665 0.800194 
-0.0108615 0.124665 0.800194 
-0.00929765 0.124839 0.801194 
-0.00773004 0.125012 0.802194 
-0.00615861 0.125185 0.803194 
-0.00444623 0.125532 0.805194 
0.0427557 0.130385 0.833194 
0.0442509 0.130385 0.833194 
0.0398604 0.125185 0.803194 
0.0411004 0.125012 0.802194 
0.0423366 0.124839 0.801194 
0.0437709 0.124839 0.801194 
0.0452052 0.124839 0.801194 
0.0464338 0.124665 0.800194 
0.0478662 0.124665 0.800194 
0.049089 0.124492 0.799194 
0.0503081 0.124319 0.798194 
0.0515233 0.124145 0.797194 
0.0527347 0.123972 0.796194 
0.0539423 0.123799 0.795194 
0.0551462 0.123625 0.794194 
0.0565671 0.123625 0.794194 
0.0577652 0.123452 0.793194 
0.0589595 0.123279 0.792194 
0.0603766 0.123279 0.792194 
0.0615652 0.123105 0.791194 
0.0629804 0.123105 0.791194 
0.0641633 0.122932 0.790194 
0.0655766 0.122932 0.790194 
0.0667538 0.122759 0.789194 
0.0681652 0.122759 0.789194 
0.0695766 0.122759 0.789194 
0.0707462 0.122585 0.788194 
0.0721557 0.122585 0.788194 
0.0735652 0.122585 0.788194 
0.0749747 0.122585 0.788194 
0.0763842 0.122585 0.788194 
0.0777938 0.122585 0.788194 
0.0792033 0.122585 0.788194 
0.0806128 0.122585 0.788194 
0.0820223 0.122585 0.788194 
0.0836909 0.122759 0.789194 
0.0851024 0.122759 0.789194 
0.0867766 0.122932 0.790194 
0.0884547 0.123105 0.791194 
0.0901366 0.123279 0.792194 
0.0918224 0.123452 0.793194 
0.0935119 0.123625 0.794194 
0.0954776 0.123972 0.796194 
0.0974509 0.124319 0.798194 
0.0994319 0.124665 0.800194 
0.10142 0.125012 0.802194 
0.103137 0.125185 0.803194 
0.104857 0.125359 0.804194 
0.10658 0.125532 0.805194 
0.108022 0.125532 0.805194 
0.109752 0.125705 0.806194 
-0.22133 0.124345 0.790194 
-0.219766 0.12417 0.789194 
-0.218206 0.123995 0.788194 
-0.216797 0.123995 0.788194 
-0.215242 0.12382 0.787194 
-0.213692 0.123644 0.786194 
-0.212145 0.123469 0.785194 
-0.210602 0.123294 0.784194 
-0.209201 0.123294 0.784194 
-0.207663 0.123119 0.783194 
-0.20613 0.122943 0.782194 
-0.204601 0.122768 0.781194 
-0.203075 0.122593 0.780194 
-0.201553 0.122418 0.779194 
-0.200035 0.122243 0.778194 
-0.198644 0.122243 0.778194 
-0.197254 0.122243 0.778194 
-0.195863 0.122243 0.778194 
-0.194591 0.122418 0.779194 
-0.193315 0.122593 0.780194 
-0.192035 0.122768 0.781194 
-0.190751 0.122943 0.782194 
-0.189463 0.123119 0.783194 
-0.188172 0.123294 0.784194 
-0.186877 0.123469 0.785194 
-0.185473 0.123469 0.785194 
-0.184172 0.123644 0.786194 
-0.182867 0.12382 0.787194 
-0.181559 0.123995 0.788194 
-0.180246 0.12417 0.789194 
-0.17893 0.124345 0.790194 
-0.17761 0.124521 0.791194 
-0.176286 0.124696 0.792194 
-0.174959 0.124871 0.793194 
