-0.250459 0.00443946 0.826 
-0.249038 0.00443946 0.826 
-0.247617 0.00443946 0.826 
-0.246195 0.00443946 0.826 
-0.244774 0.00443946 0.826 
-0.242764 0.00442871 0.824 
-0.241346 0.00442871 0.824 
-0.239346 0.00441796 0.822 
-0.237932 0.00441796 0.822 
-0.236518 0.00441796 0.822 
-0.234531 0.00440721 0.82 
-0.233121 0.00440721 0.82 
-0.23171 0.00440721 0.82 
-0.230299 0.00440721 0.82 
-0.22833 0.00439646 0.818 
-0.226923 0.00439646 0.818 
-0.226067 0.00440721 0.82 
-0.224656 0.00440721 0.82 
-0.223245 0.00440721 0.82 
-0.222375 0.00441796 0.822 
-0.220961 0.00441796 0.822 
-0.220081 0.00442871 0.824 
-0.219194 0.00443946 0.826 
-0.217773 0.00443946 0.826 
-0.216352 0.00443946 0.826 
-0.215451 0.00445021 0.828 
-0.214026 0.00445021 0.828 
-0.213115 0.00446095 0.83 
-0.211687 0.00446095 0.83 
-0.210259 0.00446095 0.83 
-0.209334 0.0044717 0.832 
-0.207403 0.00446095 0.83 
-0.205975 0.00446095 0.83 
-0.20504 0.0044717 0.832 
-0.213112 0.00471356 0.877 
-0.211121 0.00470281 0.875 
-0.0655356 0.00452545 0.842 
-0.0643153 0.00454157 0.845 
-0.0628615 0.00454157 0.845 
-0.0614077 0.00454157 0.845 
-0.0599538 0.00454157 0.845 
-0.0586385 0.00455232 0.847 
-0.0571812 0.00455232 0.847 
-0.055724 0.00455232 0.847 
-0.0542667 0.00455232 0.847 
-0.0528094 0.00455232 0.847 
-0.0512309 0.00454157 0.845 
-0.0497771 0.00454157 0.845 
-0.0483232 0.00454157 0.845 
-0.046703 0.00452545 0.842 
-0.0451469 0.0045147 0.84 
0.0293157 0.00420835 0.783 
0.0306629 0.00420835 0.783 
0.03201 0.00420835 0.783 
0.033272 0.0041976 0.781 
0.0345271 0.00418685 0.779 
-0.325534 0.00620662 0.875 
-0.314765 0.00611441 0.862 
-0.313282 0.00611441 0.862 
-0.311799 0.00611441 0.862 
-0.310316 0.00611441 0.862 
-0.308833 0.00611441 0.862 
-0.30735 0.00611441 0.862 
-0.28166 0.00588742 0.83 
-0.280232 0.00588742 0.83 
-0.278804 0.00588742 0.83 
-0.277376 0.00588742 0.83 
-0.275948 0.00588742 0.83 
-0.27452 0.00588742 0.83 
-0.273092 0.00588742 0.83 
-0.271664 0.00588742 0.83 
-0.270236 0.00588742 0.83 
-0.268808 0.00588742 0.83 
-0.26738 0.00588742 0.83 
-0.265952 0.00588742 0.83 
-0.264524 0.00588742 0.83 
-0.263096 0.00588742 0.83 
-0.261668 0.00588742 0.83 
-0.259613 0.00587324 0.828 
-0.258812 0.00588742 0.83 
-0.256764 0.00587324 0.828 
-0.255339 0.00587324 0.828 
-0.253914 0.00587324 0.828 
-0.25188 0.00585905 0.826 
-0.250459 0.00585905 0.826 
-0.249038 0.00585905 0.826 
-0.247017 0.00584486 0.824 
-0.246195 0.00585905 0.826 
-0.244182 0.00584486 0.824 
-0.242764 0.00584486 0.824 
-0.24076 0.00583068 0.822 
-0.239346 0.00583068 0.822 
-0.237932 0.00583068 0.822 
-0.235942 0.00581649 0.82 
-0.234531 0.00581649 0.82 
-0.233121 0.00581649 0.82 
-0.23171 0.00581649 0.82 
-0.230299 0.00581649 0.82 
-0.22833 0.0058023 0.818 
-0.226923 0.0058023 0.818 
-0.226067 0.00581649 0.82 
-0.224656 0.00581649 0.82 
-0.223245 0.00581649 0.82 
-0.222375 0.00583068 0.822 
-0.220961 0.00583068 0.822 
-0.220081 0.00584486 0.824 
-0.219194 0.00585905 0.826 
-0.217773 0.00585905 0.826 
-0.216875 0.00587324 0.828 
-0.215451 0.00587324 0.828 
-0.214026 0.00587324 0.828 
-0.213115 0.00588742 0.83 
-0.211687 0.00588742 0.83 
-0.210259 0.00588742 0.83 
-0.209334 0.00590161 0.832 
-0.207903 0.00590161 0.832 
-0.205975 0.00588742 0.83 
-0.204547 0.00588742 0.83 
-0.203119 0.00588742 0.83 
-0.211603 0.00622081 0.877 
-0.209615 0.00620662 0.875 
-0.0628615 0.00599382 0.845 
-0.0614077 0.00599382 0.845 
-0.0599538 0.00599382 0.845 
-0.0586385 0.00600801 0.847 
-0.0571812 0.00600801 0.847 
-0.055724 0.00600801 0.847 
-0.0542667 0.00600801 0.847 
-0.0528094 0.00600801 0.847 
-0.0513522 0.00600801 0.847 
-0.0497771 0.00599382 0.845 
-0.0483232 0.00599382 0.845 
-0.0468694 0.00599382 0.845 
-0.0452544 0.00597254 0.842 
-0.326278 0.00772805 0.877 
-0.324029 0.00771043 0.875 
-0.319183 0.00766637 0.87 
-0.315496 0.00761349 0.864 
-0.313282 0.00759587 0.862 
-0.312523 0.00761349 0.864 
-0.310316 0.00759587 0.862 
-0.308833 0.00759587 0.862 
-0.28166 0.00731389 0.83 
-0.280232 0.00731389 0.83 
-0.278804 0.00731389 0.83 
-0.277376 0.00731389 0.83 
-0.275948 0.00731389 0.83 
-0.27452 0.00731389 0.83 
-0.273092 0.00731389 0.83 
-0.271664 0.00731389 0.83 
-0.270236 0.00731389 0.83 
-0.26816 0.00729627 0.828 
-0.266736 0.00729627 0.828 
-0.265311 0.00729627 0.828 
-0.264524 0.00731389 0.83 
-0.262462 0.00729627 0.828 
-0.261037 0.00729627 0.828 
-0.259613 0.00729627 0.828 
-0.258188 0.00729627 0.828 
-0.256764 0.00729627 0.828 
-0.255339 0.00729627 0.828 
-0.253301 0.00727864 0.826 
-0.25188 0.00727864 0.826 
-0.250459 0.00727864 0.826 
-0.248435 0.00726102 0.824 
-0.247017 0.00726102 0.824 
-0.245599 0.00726102 0.824 
-0.244182 0.00726102 0.824 
-0.242175 0.00724339 0.822 
-0.24076 0.00724339 0.822 
-0.239346 0.00724339 0.822 
-0.237353 0.00722577 0.82 
-0.235942 0.00722577 0.82 
-0.234531 0.00722577 0.82 
-0.233121 0.00722577 0.82 
-0.231145 0.00720815 0.818 
-0.230299 0.00722577 0.82 
-0.22833 0.00720815 0.818 
-0.226923 0.00720815 0.818 
-0.226067 0.00722577 0.82 
-0.224656 0.00722577 0.82 
-0.223789 0.00724339 0.822 
-0.222375 0.00724339 0.822 
-0.220961 0.00724339 0.822 
-0.220081 0.00726102 0.824 
-0.219194 0.00727864 0.826 
-0.217773 0.00727864 0.826 
-0.216875 0.00729627 0.828 
-0.215451 0.00729627 0.828 
-0.214026 0.00729627 0.828 
-0.212602 0.00729627 0.828 
-0.211687 0.00731389 0.83 
-0.210259 0.00731389 0.83 
-0.209334 0.00733151 0.832 
-0.207403 0.00731389 0.83 
-0.205975 0.00731389 0.83 
-0.204547 0.00731389 0.83 
-0.203119 0.00731389 0.83 
-0.210094 0.00772805 0.877 
-0.208586 0.00772805 0.877 
-0.207077 0.00772805 0.877 
-0.0643153 0.00744607 0.845 
-0.0628615 0.00744607 0.845 
-0.0614077 0.00744607 0.845 
-0.0599538 0.00744607 0.845 
-0.0585 0.00744607 0.845 
-0.0570462 0.00744607 0.845 
-0.055724 0.00746369 0.847 
-0.0542667 0.00746369 0.847 
-0.0528094 0.00746369 0.847 
-0.0513522 0.00746369 0.847 
-0.0497771 0.00744607 0.845 
-0.0483232 0.00744607 0.845 
-0.0468694 0.00744607 0.845 
-0.0454156 0.00744607 0.845 
-0.0438057 0.00741963 0.842 
-0.042508 0.00744607 0.845 
-0.327022 0.00925636 0.879 
-0.324769 0.00923529 0.877 
-0.32326 0.00923529 0.877 
-0.320284 0.00919317 0.873 
-0.316956 0.00914052 0.868 
-0.314736 0.00911946 0.866 
-0.313246 0.00911946 0.866 
-0.311036 0.0090984 0.864 
-0.308833 0.00907734 0.862 
-0.278804 0.00874036 0.83 
-0.277376 0.00874036 0.83 
-0.275948 0.00874036 0.83 
-0.27452 0.00874036 0.83 
-0.273092 0.00874036 0.83 
-0.271664 0.00874036 0.83 
-0.270236 0.00874036 0.83 
-0.26816 0.0087193 0.828 
-0.266736 0.0087193 0.828 
-0.265311 0.0087193 0.828 
-0.263886 0.0087193 0.828 
-0.262462 0.0087193 0.828 
-0.261037 0.0087193 0.828 
-0.259613 0.0087193 0.828 
-0.258188 0.0087193 0.828 
-0.256764 0.0087193 0.828 
-0.254722 0.00869824 0.826 
-0.253301 0.00869824 0.826 
-0.25127 0.00867717 0.824 
-0.249852 0.00867717 0.824 
-0.248435 0.00867717 0.824 
-0.247017 0.00867717 0.824 
-0.245599 0.00867717 0.824 
-0.244182 0.00867717 0.824 
-0.242175 0.00865611 0.822 
-0.24076 0.00865611 0.822 
-0.238764 0.00863505 0.82 
-0.237353 0.00863505 0.82 
-0.235942 0.00863505 0.82 
-0.234531 0.00863505 0.82 
-0.233121 0.00863505 0.82 
-0.231145 0.00861399 0.818 
-0.230299 0.00863505 0.82 
-0.22833 0.00861399 0.818 
-0.227477 0.00863505 0.82 
-0.226067 0.00863505 0.82 
-0.224656 0.00863505 0.82 
-0.223789 0.00865611 0.822 
-0.222375 0.00865611 0.822 
-0.220961 0.00865611 0.822 
-0.220081 0.00867717 0.824 
-0.219194 0.00869824 0.826 
-0.217773 0.00869824 0.826 
-0.216875 0.0087193 0.828 
-0.215451 0.0087193 0.828 
-0.214026 0.0087193 0.828 
-0.213115 0.00874036 0.83 
-0.211687 0.00874036 0.83 
-0.210259 0.00874036 0.83 
-0.209334 0.00876142 0.832 
-0.207903 0.00876142 0.832 
-0.206472 0.00876142 0.832 
-0.20504 0.00876142 0.832 
-0.203119 0.00874036 0.83 
-0.201691 0.00874036 0.83 
-0.199781 0.0087193 0.828 
-0.208586 0.00923529 0.877 
-0.0643153 0.00889832 0.845 
-0.0628615 0.00889832 0.845 
-0.0614077 0.00889832 0.845 
-0.0599538 0.00889832 0.845 
-0.0586385 0.00891938 0.847 
-0.0570462 0.00889832 0.845 
-0.055724 0.00891938 0.847 
-0.0542667 0.00891938 0.847 
-0.0528094 0.00891938 0.847 
-0.0513522 0.00891938 0.847 
-0.0498949 0.00891938 0.847 
-0.0484376 0.00891938 0.847 
-0.0468694 0.00889832 0.845 
-0.0454156 0.00889832 0.845 
-0.0439618 0.00889832 0.845 
-0.042508 0.00889832 0.845 
-0.32551 0.010767 0.879 
-0.32326 0.0107425 0.877 
-0.321018 0.010718 0.875 
-0.318782 0.0106935 0.873 
-0.31619 0.0106568 0.87 
-0.313969 0.0106323 0.868 
-0.310316 0.0105588 0.862 
-0.308833 0.0105588 0.862 
-0.30735 0.0105588 0.862 
-0.304384 0.0105588 0.862 
-0.277376 0.0101668 0.83 
-0.275948 0.0101668 0.83 
-0.273858 0.0101423 0.828 
-0.273092 0.0101668 0.83 
-0.271664 0.0101668 0.83 
-0.270236 0.0101668 0.83 
-0.26816 0.0101423 0.828 
-0.266736 0.0101423 0.828 
-0.265311 0.0101423 0.828 
-0.263886 0.0101423 0.828 
-0.262462 0.0101423 0.828 
-0.260407 0.0101178 0.826 
-0.258986 0.0101178 0.826 
-0.257564 0.0101178 0.826 
-0.256143 0.0101178 0.826 
-0.254105 0.0100933 0.824 
-0.252688 0.0100933 0.824 
-0.25127 0.0100933 0.824 
-0.249852 0.0100933 0.824 
-0.247832 0.0100688 0.822 
-0.246417 0.0100688 0.822 
-0.245003 0.0100688 0.822 
-0.243589 0.0100688 0.822 
-0.242175 0.0100688 0.822 
-0.240175 0.0100443 0.82 
-0.238764 0.0100443 0.82 
-0.237353 0.0100443 0.82 
-0.235942 0.0100443 0.82 
-0.234531 0.0100443 0.82 
-0.232552 0.0100198 0.818 
-0.231145 0.0100198 0.818 
-0.229737 0.0100198 0.818 
-0.22833 0.0100198 0.818 
-0.227477 0.0100443 0.82 
-0.226067 0.0100443 0.82 
-0.224656 0.0100443 0.82 
-0.223789 0.0100688 0.822 
-0.222375 0.0100688 0.822 
-0.220961 0.0100688 0.822 
-0.220081 0.0100933 0.824 
-0.219194 0.0101178 0.826 
-0.217773 0.0101178 0.826 
-0.216875 0.0101423 0.828 
-0.215451 0.0101423 0.828 
-0.214026 0.0101423 0.828 
-0.213115 0.0101668 0.83 
-0.211687 0.0101668 0.83 
-0.210259 0.0101668 0.83 
-0.209334 0.0101913 0.832 
-0.207903 0.0101913 0.832 
-0.206472 0.0101913 0.832 
-0.20504 0.0101913 0.832 
-0.203609 0.0101913 0.832 
-0.201691 0.0101668 0.83 
-0.210094 0.0107425 0.877 
-0.208586 0.0107425 0.877 
-0.0628615 0.0103506 0.845 
-0.0614077 0.0103506 0.845 
-0.0599538 0.0103506 0.845 
-0.0586385 0.0103751 0.847 
-0.0570462 0.0103506 0.845 
-0.055724 0.0103751 0.847 
-0.0542667 0.0103751 0.847 
-0.0528094 0.0103751 0.847 
-0.0513522 0.0103751 0.847 
-0.0498949 0.0103751 0.847 
-0.0484376 0.0103751 0.847 
-0.0468694 0.0103506 0.845 
-0.0454156 0.0103506 0.845 
-0.0439618 0.0103506 0.845 
-0.0426086 0.0103751 0.847 
-0.0410541 0.0103506 0.845 
-0.321752 0.0122498 0.877 
-0.318782 0.0121939 0.873 
-0.31728 0.0121939 0.873 
-0.314693 0.012152 0.87 
-0.311036 0.0120682 0.864 
-0.308833 0.0120403 0.862 
-0.30735 0.0120403 0.862 
-0.305867 0.0120403 0.862 
-0.304384 0.0120403 0.862 
-0.303603 0.0120682 0.864 
-0.275948 0.0115933 0.83 
-0.27452 0.0115933 0.83 
-0.273092 0.0115933 0.83 
-0.271664 0.0115933 0.83 
-0.270236 0.0115933 0.83 
-0.26816 0.0115654 0.828 
-0.266736 0.0115654 0.828 
-0.265311 0.0115654 0.828 
-0.263886 0.0115654 0.828 
-0.262462 0.0115654 0.828 
-0.260407 0.0115374 0.826 
-0.258986 0.0115374 0.826 
-0.257564 0.0115374 0.826 
-0.256143 0.0115374 0.826 
-0.254105 0.0115095 0.824 
-0.252688 0.0115095 0.824 
-0.25066 0.0114816 0.822 
-0.249246 0.0114816 0.822 
-0.247832 0.0114816 0.822 
-0.246417 0.0114816 0.822 
-0.245003 0.0114816 0.822 
-0.243589 0.0114816 0.822 
-0.242175 0.0114816 0.822 
-0.240175 0.0114536 0.82 
-0.238764 0.0114536 0.82 
-0.237353 0.0114536 0.82 
-0.235942 0.0114536 0.82 
-0.234531 0.0114536 0.82 
-0.232552 0.0114257 0.818 
-0.231145 0.0114257 0.818 
-0.229737 0.0114257 0.818 
-0.22833 0.0114257 0.818 
-0.226923 0.0114257 0.818 
-0.226067 0.0114536 0.82 
-0.224656 0.0114536 0.82 
-0.223789 0.0114816 0.822 
-0.222375 0.0114816 0.822 
-0.220961 0.0114816 0.822 
-0.220081 0.0115095 0.824 
-0.219194 0.0115374 0.826 
-0.217773 0.0115374 0.826 
-0.216875 0.0115654 0.828 
-0.215451 0.0115654 0.828 
-0.214026 0.0115654 0.828 
-0.213115 0.0115933 0.83 
-0.211687 0.0115933 0.83 
-0.210259 0.0115933 0.83 
-0.209334 0.0116212 0.832 
-0.207903 0.0116212 0.832 
-0.206472 0.0116212 0.832 
-0.20504 0.0116212 0.832 
-0.203609 0.0116212 0.832 
-0.201691 0.0115933 0.83 
-0.200263 0.0115933 0.83 
-0.209061 0.0122777 0.879 
-0.0628615 0.0118028 0.845 
-0.0614077 0.0118028 0.845 
-0.0599538 0.0118028 0.845 
-0.0586385 0.0118307 0.847 
-0.0571812 0.0118307 0.847 
-0.055724 0.0118307 0.847 
-0.0542667 0.0118307 0.847 
-0.0528094 0.0118307 0.847 
-0.0514734 0.0118587 0.849 
-0.0498949 0.0118307 0.847 
-0.0484376 0.0118307 0.847 
-0.0469804 0.0118307 0.847 
-0.0455231 0.0118307 0.847 
-0.0440658 0.0118307 0.847 
-0.0426086 0.0118307 0.847 
-0.0411513 0.0118307 0.847 
-0.322485 0.0137884 0.879 
-0.320243 0.013757 0.877 
-0.318007 0.0137257 0.875 
-0.314693 0.0136472 0.87 
-0.311756 0.0135845 0.866 
-0.30955 0.0135531 0.864 
-0.308063 0.0135531 0.864 
-0.306576 0.0135531 0.864 
-0.30509 0.0135531 0.864 
-0.303603 0.0135531 0.864 
-0.275948 0.0130198 0.83 
-0.27452 0.0130198 0.83 
-0.273092 0.0130198 0.83 
-0.271664 0.0130198 0.83 
-0.269585 0.0129884 0.828 
-0.26816 0.0129884 0.828 
-0.266736 0.0129884 0.828 
-0.265311 0.0129884 0.828 
-0.263886 0.0129884 0.828 
-0.261828 0.012957 0.826 
-0.260407 0.012957 0.826 
-0.258986 0.012957 0.826 
-0.256941 0.0129256 0.824 
-0.255523 0.0129256 0.824 
-0.253489 0.0128943 0.822 
-0.252074 0.0128943 0.822 
-0.25066 0.0128943 0.822 
-0.249246 0.0128943 0.822 
-0.247832 0.0128943 0.822 
-0.246417 0.0128943 0.822 
-0.245003 0.0128943 0.822 
-0.243589 0.0128943 0.822 
-0.241585 0.0128629 0.82 
-0.240175 0.0128629 0.82 
-0.238764 0.0128629 0.82 
-0.236774 0.0128315 0.818 
-0.235942 0.0128629 0.82 
-0.234531 0.0128629 0.82 
-0.232552 0.0128315 0.818 
-0.231145 0.0128315 0.818 
-0.229737 0.0128315 0.818 
-0.22833 0.0128315 0.818 
-0.227477 0.0128629 0.82 
-0.226067 0.0128629 0.82 
-0.224656 0.0128629 0.82 
-0.223789 0.0128943 0.822 
-0.222375 0.0128943 0.822 
-0.220961 0.0128943 0.822 
-0.220081 0.0129256 0.824 
-0.219194 0.012957 0.826 
-0.217773 0.012957 0.826 
-0.216875 0.0129884 0.828 
-0.215451 0.0129884 0.828 
-0.214026 0.0129884 0.828 
-0.213115 0.0130198 0.83 
-0.211687 0.0130198 0.83 
-0.210259 0.0130198 0.83 
-0.209334 0.0130511 0.832 
-0.207903 0.0130511 0.832 
-0.206968 0.0130825 0.834 
-0.205533 0.0130825 0.834 
-0.203609 0.0130511 0.832 
-0.202177 0.0130511 0.832 
-0.200263 0.0130198 0.83 
-0.209061 0.0137884 0.879 
-0.0628615 0.0132551 0.845 
-0.0614077 0.0132551 0.845 
-0.0600957 0.0132864 0.847 
-0.0586385 0.0132864 0.847 
-0.0571812 0.0132864 0.847 
-0.055724 0.0132864 0.847 
-0.0543948 0.0133178 0.849 
-0.0529341 0.0133178 0.849 
-0.0514734 0.0133178 0.849 
-0.0500127 0.0133178 0.849 
-0.048552 0.0133178 0.849 
-0.0469804 0.0132864 0.847 
-0.0455231 0.0132864 0.847 
-0.0440658 0.0132864 0.847 
-0.0426086 0.0132864 0.847 
-0.0411513 0.0132864 0.847 
-0.322485 0.0152991 0.879 
-0.320243 0.0152643 0.877 
-0.318734 0.0152643 0.877 
-0.315778 0.0151946 0.873 
-0.312476 0.0151076 0.868 
-0.310266 0.0150728 0.866 
-0.308776 0.0150728 0.866 
-0.306576 0.015038 0.864 
-0.30509 0.015038 0.864 
-0.303603 0.015038 0.864 
-0.27452 0.0144462 0.83 
-0.273092 0.0144462 0.83 
-0.271664 0.0144462 0.83 
-0.269585 0.0144114 0.828 
-0.26816 0.0144114 0.828 
-0.266736 0.0144114 0.828 
-0.265311 0.0144114 0.828 
-0.263886 0.0144114 0.828 
-0.261828 0.0143766 0.826 
-0.260407 0.0143766 0.826 
-0.258986 0.0143766 0.826 
-0.256941 0.0143418 0.824 
-0.255523 0.0143418 0.824 
-0.253489 0.014307 0.822 
-0.252074 0.014307 0.822 
-0.25066 0.014307 0.822 
-0.249246 0.014307 0.822 
-0.247832 0.014307 0.822 
-0.246417 0.014307 0.822 
-0.244407 0.0142722 0.82 
-0.242996 0.0142722 0.82 
-0.241585 0.0142722 0.82 
-0.239589 0.0142374 0.818 
-0.238181 0.0142374 0.818 
-0.236774 0.0142374 0.818 
-0.235367 0.0142374 0.818 
-0.233959 0.0142374 0.818 
-0.232552 0.0142374 0.818 
-0.231145 0.0142374 0.818 
-0.229737 0.0142374 0.818 
-0.228888 0.0142722 0.82 
-0.227477 0.0142722 0.82 
-0.226067 0.0142722 0.82 
-0.224656 0.0142722 0.82 
-0.223789 0.014307 0.822 
-0.222375 0.014307 0.822 
-0.220961 0.014307 0.822 
-0.220081 0.0143418 0.824 
-0.219194 0.0143766 0.826 
-0.217773 0.0143766 0.826 
-0.216875 0.0144114 0.828 
-0.215451 0.0144114 0.828 
-0.214026 0.0144114 0.828 
-0.213115 0.0144462 0.83 
-0.211687 0.0144462 0.83 
-0.210766 0.014481 0.832 
-0.209334 0.014481 0.832 
-0.207903 0.014481 0.832 
-0.206968 0.0145158 0.834 
-0.205533 0.0145158 0.834 
-0.204098 0.0145158 0.834 
-0.202663 0.0145158 0.834 
-0.200746 0.014481 0.832 
-0.198835 0.0144462 0.83 
-0.0614077 0.0147073 0.845 
-0.0599538 0.0147073 0.845 
-0.0586385 0.0147421 0.847 
-0.0570462 0.0147073 0.845 
-0.055724 0.0147421 0.847 
-0.0542667 0.0147421 0.847 
-0.0528094 0.0147421 0.847 
-0.0514734 0.0147769 0.849 
-0.0500127 0.0147769 0.849 
-0.048552 0.0147769 0.849 
-0.0469804 0.0147421 0.847 
-0.0455231 0.0147421 0.847 
-0.0440658 0.0147421 0.847 
-0.0426086 0.0147421 0.847 
-0.0411513 0.0147421 0.847 
-0.039694 0.0147421 0.847 
0.162049 0.0150728 0.866 
0.163539 0.0150728 0.866 
-0.322485 0.0168098 0.879 
-0.320973 0.0168098 0.879 
-0.318734 0.0167715 0.877 
-0.316501 0.0167333 0.875 
-0.313196 0.0166376 0.87 
-0.310983 0.0165994 0.868 
-0.308776 0.0165612 0.866 
-0.306576 0.0165229 0.864 
-0.30509 0.0165229 0.864 
-0.303603 0.0165229 0.864 
-0.302117 0.0165229 0.864 
-0.275181 0.0159109 0.832 
-0.274408 0.0159492 0.834 
-0.272319 0.0159109 0.832 
-0.270236 0.0158727 0.83 
-0.268808 0.0158727 0.83 
-0.26738 0.0158727 0.83 
-0.265311 0.0158344 0.828 
-0.263886 0.0158344 0.828 
-0.262462 0.0158344 0.828 
-0.260407 0.0157962 0.826 
-0.258986 0.0157962 0.826 
-0.256941 0.015758 0.824 
-0.255523 0.015758 0.824 
-0.254105 0.015758 0.824 
-0.252074 0.0157197 0.822 
-0.25066 0.0157197 0.822 
-0.249246 0.0157197 0.822 
-0.247832 0.0157197 0.822 
-0.245818 0.0156815 0.82 
-0.244407 0.0156815 0.82 
-0.242996 0.0156815 0.82 
-0.240996 0.0156432 0.818 
-0.239589 0.0156432 0.818 
-0.238181 0.0156432 0.818 
-0.236195 0.015605 0.816 
-0.235367 0.0156432 0.818 
-0.233959 0.0156432 0.818 
-0.232552 0.0156432 0.818 
-0.231145 0.0156432 0.818 
-0.229737 0.0156432 0.818 
-0.228888 0.0156815 0.82 
-0.227477 0.0156815 0.82 
-0.226067 0.0156815 0.82 
-0.225204 0.0157197 0.822 
-0.223789 0.0157197 0.822 
-0.222375 0.0157197 0.822 
-0.220961 0.0157197 0.822 
-0.220081 0.015758 0.824 
-0.219194 0.0157962 0.826 
-0.217773 0.0157962 0.826 
-0.216875 0.0158344 0.828 
-0.215451 0.0158344 0.828 
-0.214026 0.0158344 0.828 
-0.213115 0.0158727 0.83 
-0.211687 0.0158727 0.83 
-0.210766 0.0159109 0.832 
-0.209334 0.0159109 0.832 
-0.207903 0.0159109 0.832 
-0.206968 0.0159492 0.834 
-0.205533 0.0159492 0.834 
-0.204098 0.0159492 0.834 
-0.202663 0.0159492 0.834 
-0.200746 0.0159109 0.832 
-0.198835 0.0158727 0.83 
-0.0614077 0.0161596 0.845 
-0.0599538 0.0161596 0.845 
-0.0586385 0.0161978 0.847 
-0.0570462 0.0161596 0.845 
-0.0555924 0.0161596 0.845 
-0.0542667 0.0161978 0.847 
-0.0528094 0.0161978 0.847 
-0.0514734 0.016236 0.849 
-0.0500127 0.016236 0.849 
-0.048552 0.016236 0.849 
-0.0470913 0.016236 0.849 
-0.0456306 0.016236 0.849 
-0.0440658 0.0161978 0.847 
-0.0426086 0.0161978 0.847 
-0.0411513 0.0161978 0.847 
-0.039694 0.0161978 0.847 
-0.316501 0.0182371 0.875 
-0.314276 0.0181954 0.873 
-0.311699 0.0181329 0.87 
-0.310202 0.0181329 0.87 
-0.307286 0.0180495 0.866 
-0.30509 0.0180078 0.864 
-0.303603 0.0180078 0.864 
-0.302117 0.0180078 0.864 
-0.274408 0.0173825 0.834 
-0.272319 0.0173408 0.832 
-0.270887 0.0173408 0.832 
-0.269456 0.0173408 0.832 
-0.26738 0.0172992 0.83 
-0.265952 0.0172992 0.83 
-0.263886 0.0172575 0.828 
-0.262462 0.0172575 0.828 
-0.260407 0.0172158 0.826 
-0.258986 0.0172158 0.826 
-0.256941 0.0171741 0.824 
-0.255523 0.0171741 0.824 
-0.253489 0.0171324 0.822 
-0.252074 0.0171324 0.822 
-0.25066 0.0171324 0.822 
-0.248639 0.0170907 0.82 
-0.247229 0.0170907 0.82 
-0.245818 0.0170907 0.82 
-0.244407 0.0170907 0.82 
-0.242404 0.0170491 0.818 
-0.240407 0.0170074 0.816 
-0.239003 0.0170074 0.816 
-0.237599 0.0170074 0.816 
-0.236195 0.0170074 0.816 
-0.234791 0.0170074 0.816 
-0.233959 0.0170491 0.818 
-0.232552 0.0170491 0.818 
-0.231145 0.0170491 0.818 
-0.229737 0.0170491 0.818 
-0.228888 0.0170907 0.82 
-0.227477 0.0170907 0.82 
-0.226067 0.0170907 0.82 
-0.224656 0.0170907 0.82 
-0.223789 0.0171324 0.822 
-0.222375 0.0171324 0.822 
-0.220961 0.0171324 0.822 
-0.220081 0.0171741 0.824 
-0.219194 0.0172158 0.826 
-0.217773 0.0172158 0.826 
-0.216875 0.0172575 0.828 
-0.215451 0.0172575 0.828 
-0.214543 0.0172992 0.83 
-0.213115 0.0172992 0.83 
-0.211687 0.0172992 0.83 
-0.210766 0.0173408 0.832 
-0.209334 0.0173408 0.832 
-0.208403 0.0173825 0.834 
-0.206968 0.0173825 0.834 
-0.205533 0.0173825 0.834 
-0.204098 0.0173825 0.834 
-0.202663 0.0173825 0.834 
-0.200746 0.0173408 0.832 
-0.198835 0.0172992 0.83 
-0.197883 0.0173408 0.832 
-0.0611896 0.0175493 0.842 
-0.0599538 0.0176118 0.845 
-0.0586385 0.0176535 0.847 
-0.0570462 0.0176118 0.845 
-0.055724 0.0176535 0.847 
-0.0543948 0.0176952 0.849 
-0.0529341 0.0176952 0.849 
-0.0514734 0.0176952 0.849 
-0.0501305 0.0177369 0.851 
-0.0486664 0.0177369 0.851 
-0.0470913 0.0176952 0.849 
-0.0456306 0.0176952 0.849 
-0.0440658 0.0176535 0.847 
-0.0426086 0.0176535 0.847 
-0.0411513 0.0176535 0.847 
-0.039694 0.0176535 0.847 
-0.0382368 0.0176535 0.847 
0.147798 0.0170907 0.82 
0.149209 0.0170907 0.82 
0.15062 0.0170907 0.82 
0.152031 0.0170907 0.82 
-0.314276 0.0196958 0.873 
-0.311699 0.0196281 0.87 
-0.310202 0.0196281 0.87 
-0.307996 0.0195829 0.868 
-0.30509 0.0194927 0.864 
-0.303603 0.0194927 0.864 
-0.302117 0.0194927 0.864 
-0.299935 0.0194476 0.862 
-0.298451 0.0194476 0.862 
-0.295246 0.0193348 0.857 
-0.275066 0.018861 0.836 
-0.272973 0.0188159 0.834 
-0.271538 0.0188159 0.834 
-0.270103 0.0188159 0.834 
-0.268024 0.0187708 0.832 
-0.265952 0.0187256 0.83 
-0.263886 0.0186805 0.828 
-0.262462 0.0186805 0.828 
-0.260407 0.0186354 0.826 
-0.258986 0.0186354 0.826 
-0.256941 0.0185903 0.824 
-0.254903 0.0185451 0.822 
-0.253489 0.0185451 0.822 
-0.252074 0.0185451 0.822 
-0.25005 0.0185 0.82 
-0.248639 0.0185 0.82 
-0.247229 0.0185 0.82 
-0.245218 0.0184549 0.818 
-0.243811 0.0184549 0.818 
-0.241811 0.0184098 0.816 
-0.239818 0.0183647 0.814 
-0.238417 0.0183647 0.814 
-0.237599 0.0184098 0.816 
-0.235616 0.0183647 0.814 
-0.234791 0.0184098 0.816 
-0.233387 0.0184098 0.816 
-0.231983 0.0184098 0.816 
-0.231145 0.0184549 0.818 
-0.230299 0.0185 0.82 
-0.228888 0.0185 0.82 
-0.227477 0.0185 0.82 
-0.226067 0.0185 0.82 
-0.225204 0.0185451 0.822 
-0.223789 0.0185451 0.822 
-0.222375 0.0185451 0.822 
-0.220961 0.0185451 0.822 
-0.220081 0.0185903 0.824 
-0.219194 0.0186354 0.826 
-0.217773 0.0186354 0.826 
-0.216875 0.0186805 0.828 
-0.215451 0.0186805 0.828 
-0.214543 0.0187256 0.83 
-0.213115 0.0187256 0.83 
-0.212197 0.0187708 0.832 
-0.210766 0.0187708 0.832 
-0.209334 0.0187708 0.832 
-0.208403 0.0188159 0.834 
-0.206968 0.0188159 0.834 
-0.205533 0.0188159 0.834 
-0.204098 0.0188159 0.834 
-0.202663 0.0188159 0.834 
-0.201228 0.0188159 0.834 
-0.199793 0.0188159 0.834 
-0.198358 0.0188159 0.834 
-0.0599538 0.019064 0.845 
-0.0586385 0.0191092 0.847 
-0.0571812 0.0191092 0.847 
-0.055724 0.0191092 0.847 
-0.0543948 0.0191543 0.849 
-0.0529341 0.0191543 0.849 
-0.0514734 0.0191543 0.849 
-0.0500127 0.0191543 0.849 
-0.0486664 0.0191994 0.851 
-0.0470913 0.0191543 0.849 
-0.0456306 0.0191543 0.849 
-0.0440658 0.0191092 0.847 
-0.0426086 0.0191092 0.847 
-0.0411513 0.0191092 0.847 
-0.039694 0.0191092 0.847 
-0.0382368 0.0191092 0.847 
0.146388 0.0185 0.82 
0.147798 0.0185 0.82 
0.149209 0.0185 0.82 
0.15062 0.0185 0.82 
0.152031 0.0185 0.82 
0.153067 0.0184549 0.818 
-0.314276 0.0211961 0.873 
-0.311699 0.0211233 0.87 
-0.310202 0.0211233 0.87 
-0.307996 0.0210747 0.868 
-0.30509 0.0209776 0.864 
-0.303603 0.0209776 0.864 
-0.301418 0.020929 0.862 
-0.299935 0.020929 0.862 
-0.297413 0.0208562 0.859 
-0.295246 0.0208076 0.857 
-0.273628 0.0202978 0.836 
-0.272189 0.0202978 0.836 
-0.270751 0.0202978 0.836 
-0.268668 0.0202492 0.834 
-0.265952 0.0201521 0.83 
-0.263886 0.0201035 0.828 
-0.262462 0.0201035 0.828 
-0.260407 0.020055 0.826 
-0.258359 0.0200064 0.824 
-0.256941 0.0200064 0.824 
-0.254903 0.0199579 0.822 
-0.253489 0.0199579 0.822 
-0.251461 0.0199093 0.82 
-0.25005 0.0199093 0.82 
-0.248639 0.0199093 0.82 
-0.246626 0.0198607 0.818 
-0.244619 0.0198122 0.816 
-0.242619 0.0197636 0.814 
-0.241218 0.0197636 0.814 
-0.239818 0.0197636 0.814 
-0.238417 0.0197636 0.814 
-0.237017 0.0197636 0.814 
-0.235616 0.0197636 0.814 
-0.234216 0.0197636 0.814 
-0.233387 0.0198122 0.816 
-0.231983 0.0198122 0.816 
-0.231145 0.0198607 0.818 
-0.230299 0.0199093 0.82 
-0.228888 0.0199093 0.82 
-0.227477 0.0199093 0.82 
-0.226067 0.0199093 0.82 
-0.225204 0.0199579 0.822 
-0.223789 0.0199579 0.822 
-0.222375 0.0199579 0.822 
-0.221499 0.0200064 0.824 
-0.220081 0.0200064 0.824 
-0.219194 0.020055 0.826 
-0.217773 0.020055 0.826 
-0.216875 0.0201035 0.828 
-0.215451 0.0201035 0.828 
-0.214543 0.0201521 0.83 
-0.213115 0.0201521 0.83 
-0.212197 0.0202007 0.832 
-0.211273 0.0202492 0.834 
-0.209838 0.0202492 0.834 
-0.208403 0.0202492 0.834 
-0.206968 0.0202492 0.834 
-0.205533 0.0202492 0.834 
-0.204587 0.0202978 0.836 
-0.203149 0.0202978 0.836 
-0.201711 0.0202978 0.836 
-0.200272 0.0202978 0.836 
-0.198834 0.0202978 0.836 
-0.196924 0.0202492 0.834 
-0.19502 0.0202007 0.832 
-0.0585 0.0205163 0.845 
-0.0570462 0.0205163 0.845 
-0.0555924 0.0205163 0.845 
-0.0543948 0.0206134 0.849 
-0.0529341 0.0206134 0.849 
-0.0514734 0.0206134 0.849 
-0.0501305 0.020662 0.851 
-0.0486664 0.020662 0.851 
-0.0470913 0.0206134 0.849 
-0.0456306 0.0206134 0.849 
-0.0440658 0.0205649 0.847 
-0.0426086 0.0205649 0.847 
-0.0411513 0.0205649 0.847 
-0.039694 0.0205649 0.847 
-0.0382368 0.0205649 0.847 
-0.0367795 0.0205649 0.847 
0.143566 0.0199093 0.82 
0.144977 0.0199093 0.82 
0.146388 0.0199093 0.82 
0.147798 0.0199093 0.82 
0.149209 0.0199093 0.82 
0.15062 0.0199093 0.82 
0.152031 0.0199093 0.82 
0.153067 0.0198607 0.818 
-0.314996 0.0227485 0.875 
-0.312774 0.0226965 0.873 
-0.310202 0.0226185 0.87 
-0.307996 0.0225665 0.868 
-0.30509 0.0224625 0.864 
-0.303603 0.0224625 0.864 
-0.301418 0.0224105 0.862 
-0.298891 0.0223325 0.859 
-0.297413 0.0223325 0.859 
-0.295246 0.0222805 0.857 
-0.293771 0.0222805 0.857 
-0.272841 0.0217866 0.838 
-0.271399 0.0217866 0.838 
-0.268668 0.0216826 0.834 
-0.266593 0.0216306 0.832 
-0.264524 0.0215786 0.83 
-0.263096 0.0215786 0.83 
-0.260407 0.0214746 0.826 
-0.258986 0.0214746 0.826 
-0.256941 0.0214226 0.824 
-0.254903 0.0213706 0.822 
-0.252872 0.0213186 0.82 
-0.251461 0.0213186 0.82 
-0.24944 0.0212666 0.818 
-0.247427 0.0212146 0.816 
-0.24542 0.0211626 0.814 
-0.24342 0.0211106 0.812 
-0.242023 0.0211106 0.812 
-0.240626 0.0211106 0.812 
-0.239229 0.0211106 0.812 
-0.237831 0.0211106 0.812 
-0.237017 0.0211626 0.814 
-0.235037 0.0211106 0.812 
-0.234216 0.0211626 0.814 
-0.232815 0.0211626 0.814 
-0.231983 0.0212146 0.816 
-0.231145 0.0212666 0.818 
-0.230299 0.0213186 0.82 
-0.228888 0.0213186 0.82 
-0.227477 0.0213186 0.82 
-0.226067 0.0213186 0.82 
-0.225204 0.0213706 0.822 
-0.223789 0.0213706 0.822 
-0.222375 0.0213706 0.822 
-0.220961 0.0213706 0.822 
-0.220081 0.0214226 0.824 
-0.219194 0.0214746 0.826 
-0.217773 0.0214746 0.826 
-0.216875 0.0215266 0.828 
-0.215451 0.0215266 0.828 
-0.214543 0.0215786 0.83 
-0.213115 0.0215786 0.83 
-0.212197 0.0216306 0.832 
-0.210766 0.0216306 0.832 
-0.209838 0.0216826 0.834 
-0.208403 0.0216826 0.834 
-0.206968 0.0216826 0.834 
-0.205533 0.0216826 0.834 
-0.204587 0.0217346 0.836 
-0.203149 0.0217346 0.836 
-0.201711 0.0217346 0.836 
-0.200272 0.0217346 0.836 
-0.198834 0.0217346 0.836 
-0.196924 0.0216826 0.834 
-0.19502 0.0216306 0.832 
-0.193588 0.0216306 0.832 
-0.0585 0.0219685 0.845 
-0.0570462 0.0219685 0.845 
-0.0555924 0.0219685 0.845 
-0.0542667 0.0220205 0.847 
-0.0529341 0.0220725 0.849 
-0.0514734 0.0220725 0.849 
-0.0501305 0.0221245 0.851 
-0.0486664 0.0221245 0.851 
-0.0472022 0.0221245 0.851 
-0.0457381 0.0221245 0.851 
-0.0441699 0.0220725 0.849 
-0.0427092 0.0220725 0.849 
-0.0412485 0.0220725 0.849 
-0.039694 0.0220205 0.847 
-0.0382368 0.0220205 0.847 
-0.0367795 0.0220205 0.847 
0.140744 0.0213186 0.82 
0.142155 0.0213186 0.82 
0.143566 0.0213186 0.82 
0.144977 0.0213186 0.82 
0.146388 0.0213186 0.82 
0.147798 0.0213186 0.82 
0.149209 0.0213186 0.82 
0.15062 0.0213186 0.82 
0.152031 0.0213186 0.82 
0.153442 0.0213186 0.82 
-0.314996 0.0242523 0.875 
-0.312774 0.0241969 0.873 
-0.311272 0.0241969 0.873 
-0.307996 0.0240583 0.868 
-0.30509 0.0239474 0.864 
-0.302901 0.023892 0.862 
-0.301418 0.023892 0.862 
-0.298891 0.0238088 0.859 
-0.29672 0.0237534 0.857 
-0.294557 0.023698 0.855 
-0.293086 0.023698 0.855 
-0.274143 0.0233376 0.842 
-0.271399 0.0232268 0.838 
-0.269313 0.0231713 0.836 
-0.267234 0.0231159 0.834 
-0.265799 0.0231159 0.834 
-0.26373 0.0230605 0.832 
-0.261037 0.0229496 0.828 
-0.259613 0.0229496 0.828 
-0.257564 0.0228942 0.826 
-0.254903 0.0227833 0.822 
-0.253489 0.0227833 0.822 
-0.251461 0.0227279 0.82 
-0.248831 0.022617 0.816 
-0.24682 0.0225616 0.814 
-0.244817 0.0225061 0.812 
-0.24282 0.0224507 0.81 
-0.241128 0.022423 0.809 
-0.239737 0.022423 0.809 
-0.238639 0.0224507 0.81 
-0.237246 0.0224507 0.81 
-0.236434 0.0225061 0.812 
-0.235037 0.0225061 0.812 
-0.23364 0.0225061 0.812 
-0.232815 0.0225616 0.814 
-0.231415 0.0225616 0.814 
-0.230579 0.022617 0.816 
-0.229737 0.0226724 0.818 
-0.228888 0.0227279 0.82 
-0.227477 0.0227279 0.82 
-0.226067 0.0227279 0.82 
-0.224656 0.0227279 0.82 
-0.223789 0.0227833 0.822 
-0.222375 0.0227833 0.822 
-0.220961 0.0227833 0.822 
-0.220081 0.0228387 0.824 
-0.219194 0.0228942 0.826 
-0.217773 0.0228942 0.826 
-0.216875 0.0229496 0.828 
-0.215451 0.0229496 0.828 
-0.214543 0.023005 0.83 
-0.213115 0.023005 0.83 
-0.212197 0.0230605 0.832 
-0.211273 0.0231159 0.834 
-0.209838 0.0231159 0.834 
-0.208403 0.0231159 0.834 
-0.206968 0.0231159 0.834 
-0.206026 0.0231713 0.836 
-0.204587 0.0231713 0.836 
-0.203149 0.0231713 0.836 
-0.201711 0.0231713 0.836 
-0.200272 0.0231713 0.836 
-0.198834 0.0231713 0.836 
-0.196924 0.0231159 0.834 
-0.195489 0.0231159 0.834 
-0.193588 0.0230605 0.832 
-0.0570462 0.0234208 0.845 
-0.0555924 0.0234208 0.845 
-0.0542667 0.0234762 0.847 
-0.0529341 0.0235317 0.849 
-0.0514734 0.0235317 0.849 
-0.0500127 0.0235317 0.849 
-0.0486664 0.0235871 0.851 
-0.0472022 0.0235871 0.851 
-0.0458456 0.0236425 0.853 
-0.0442739 0.0235871 0.851 
-0.0428098 0.0235871 0.851 
-0.0412485 0.0235317 0.849 
-0.039694 0.0234762 0.847 
-0.0382368 0.0234762 0.847 
-0.0367795 0.0234762 0.847 
0.139333 0.0227279 0.82 
0.140744 0.0227279 0.82 
0.142155 0.0227279 0.82 
0.143566 0.0227279 0.82 
0.144977 0.0227279 0.82 
0.146388 0.0227279 0.82 
0.147798 0.0227279 0.82 
0.149209 0.0227279 0.82 
0.15062 0.0227279 0.82 
0.152031 0.0227279 0.82 
0.153442 0.0227279 0.82 
-0.317948 0.0258738 0.879 
-0.315716 0.025815 0.877 
-0.312774 0.0256972 0.873 
-0.311272 0.0256972 0.873 
-0.307286 0.0254912 0.866 
-0.304384 0.0253734 0.862 
-0.302901 0.0253734 0.862 
-0.300369 0.0252851 0.859 
-0.298195 0.0252263 0.857 
-0.29672 0.0252263 0.857 
-0.294557 0.0251674 0.855 
-0.293086 0.0251674 0.855 
-0.27512 0.024873 0.845 
-0.272047 0.0247259 0.84 
-0.269957 0.024667 0.838 
-0.267874 0.0246081 0.836 
-0.266436 0.0246081 0.836 
-0.264364 0.0245492 0.834 
-0.261668 0.0244315 0.83 
-0.26024 0.0244315 0.83 
-0.258188 0.0243726 0.828 
-0.255523 0.0242549 0.824 
-0.253489 0.024196 0.822 
-0.251461 0.0241371 0.82 
-0.248221 0.0239605 0.814 
-0.24682 0.0239605 0.814 
-0.244817 0.0239017 0.812 
-0.24252 0.0238134 0.809 
-0.240532 0.0237545 0.807 
-0.239144 0.0237545 0.807 
-0.237755 0.0237545 0.807 
-0.236953 0.0238134 0.809 
-0.235561 0.0238134 0.809 
-0.234458 0.0238428 0.81 
-0.23364 0.0239017 0.812 
-0.232243 0.0239017 0.812 
-0.231415 0.0239605 0.814 
-0.230579 0.0240194 0.816 
-0.229737 0.0240783 0.818 
-0.22833 0.0240783 0.818 
-0.227477 0.0241371 0.82 
-0.226067 0.0241371 0.82 
-0.224656 0.0241371 0.82 
-0.223789 0.024196 0.822 
-0.222375 0.024196 0.822 
-0.220961 0.024196 0.822 
-0.220081 0.0242549 0.824 
-0.219194 0.0243138 0.826 
-0.217773 0.0243138 0.826 
-0.216875 0.0243726 0.828 
-0.215451 0.0243726 0.828 
-0.214543 0.0244315 0.83 
-0.213115 0.0244315 0.83 
-0.211687 0.0244315 0.83 
-0.210766 0.0244904 0.832 
-0.209334 0.0244904 0.832 
-0.208403 0.0245492 0.834 
-0.206968 0.0245492 0.834 
-0.205533 0.0245492 0.834 
-0.204587 0.0246081 0.836 
-0.203149 0.0246081 0.836 
-0.201711 0.0246081 0.836 
-0.200272 0.0246081 0.836 
-0.198834 0.0246081 0.836 
-0.197396 0.0246081 0.836 
-0.195489 0.0245492 0.834 
-0.193588 0.0244904 0.832 
-0.192157 0.0244904 0.832 
-0.0570462 0.024873 0.845 
-0.0555924 0.024873 0.845 
-0.0542667 0.0249319 0.847 
-0.0529341 0.0249908 0.849 
-0.0514734 0.0249908 0.849 
-0.0501305 0.0250496 0.851 
-0.0486664 0.0250496 0.851 
-0.0472022 0.0250496 0.851 
-0.0458456 0.0251085 0.853 
-0.044378 0.0251085 0.853 
-0.0428098 0.0250496 0.851 
-0.0413456 0.0250496 0.851 
-0.0397878 0.0249908 0.849 
-0.0383271 0.0249908 0.849 
-0.0368664 0.0249908 0.849 
0.136845 0.024196 0.822 
0.137923 0.0241371 0.82 
0.139333 0.0241371 0.82 
0.140744 0.0241371 0.82 
0.142155 0.0241371 0.82 
0.143566 0.0241371 0.82 
0.144977 0.0241371 0.82 
0.146388 0.0241371 0.82 
0.147798 0.0241371 0.82 
0.149209 0.0241371 0.82 
0.15062 0.0241371 0.82 
0.152031 0.0241371 0.82 
0.153442 0.0241371 0.82 
-0.315716 0.0273222 0.877 
-0.313491 0.0272599 0.875 
-0.310202 0.0271041 0.87 
-0.307286 0.0269795 0.866 
-0.304384 0.0268549 0.862 
-0.302901 0.0268549 0.862 
-0.300369 0.0267614 0.859 
-0.298195 0.0266991 0.857 
-0.29672 0.0266991 0.857 
-0.294557 0.0266368 0.855 
-0.293086 0.0266368 0.855 
-0.291615 0.0266368 0.855 
-0.27512 0.0263253 0.845 
-0.272047 0.0261695 0.84 
-0.269957 0.0261072 0.838 
-0.267874 0.0260449 0.836 
-0.266436 0.0260449 0.836 
-0.264998 0.0260449 0.836 
-0.262298 0.0259203 0.832 
-0.260867 0.0259203 0.832 
-0.258812 0.025858 0.83 
-0.256764 0.0257957 0.828 
-0.254722 0.0257334 0.826 
-0.252074 0.0256087 0.822 
-0.248831 0.0254218 0.816 
-0.24682 0.0253595 0.814 
-0.244214 0.0252349 0.81 
-0.241921 0.0251414 0.807 
-0.239936 0.0250791 0.805 
-0.238551 0.0250791 0.805 
-0.237166 0.0250791 0.805 
-0.236367 0.0251414 0.807 
-0.234979 0.0251414 0.807 
-0.234169 0.0252037 0.809 
-0.233065 0.0252349 0.81 
-0.232243 0.0252972 0.812 
-0.231415 0.0253595 0.814 
-0.230579 0.0254218 0.816 
-0.229737 0.0254841 0.818 
-0.22833 0.0254841 0.818 
-0.226923 0.0254841 0.818 
-0.226067 0.0255464 0.82 
-0.224656 0.0255464 0.82 
-0.223789 0.0256087 0.822 
-0.222375 0.0256087 0.822 
-0.220961 0.0256087 0.822 
-0.220081 0.025671 0.824 
-0.219194 0.0257334 0.826 
-0.217773 0.0257334 0.826 
-0.216352 0.0257334 0.826 
-0.215451 0.0257957 0.828 
-0.214026 0.0257957 0.828 
-0.213115 0.025858 0.83 
-0.211687 0.025858 0.83 
-0.210259 0.025858 0.83 
-0.209334 0.0259203 0.832 
-0.207903 0.0259203 0.832 
-0.206968 0.0259826 0.834 
-0.205533 0.0259826 0.834 
-0.204098 0.0259826 0.834 
-0.203149 0.0260449 0.836 
-0.201711 0.0260449 0.836 
-0.200272 0.0260449 0.836 
-0.198834 0.0260449 0.836 
-0.197396 0.0260449 0.836 
-0.195957 0.0260449 0.836 
-0.194054 0.0259826 0.834 
-0.192619 0.0259826 0.834 
-0.0529341 0.0264499 0.849 
-0.0514734 0.0264499 0.849 
-0.0500127 0.0264499 0.849 
-0.0486664 0.0265122 0.851 
-0.0472022 0.0265122 0.851 
-0.0458456 0.0265745 0.853 
-0.044378 0.0265745 0.853 
-0.0429104 0.0265745 0.853 
-0.0414428 0.0265745 0.853 
-0.0399752 0.0265745 0.853 
-0.0385076 0.0265745 0.853 
-0.0369532 0.0265122 0.851 
0.134016 0.0256087 0.822 
0.135431 0.0256087 0.822 
0.136845 0.0256087 0.822 
0.137923 0.0255464 0.82 
0.139333 0.0255464 0.82 
0.140744 0.0255464 0.82 
0.142155 0.0255464 0.82 
0.143566 0.0255464 0.82 
0.144977 0.0255464 0.82 
0.146388 0.0255464 0.82 
0.148159 0.0256087 0.822 
0.149209 0.0255464 0.82 
0.15062 0.0255464 0.82 
0.152402 0.0256087 0.822 
0.153442 0.0255464 0.82 
0.154852 0.0255464 0.82 
-0.307286 0.0284679 0.866 
-0.304384 0.0283364 0.862 
-0.302901 0.0283364 0.862 
-0.300369 0.0282377 0.859 
-0.298195 0.028172 0.857 
-0.29672 0.028172 0.857 
-0.294557 0.0281063 0.855 
-0.293086 0.0281063 0.855 
-0.291615 0.0281063 0.855 
-0.289465 0.0280405 0.853 
-0.278685 0.0278433 0.847 
-0.277228 0.0278433 0.847 
-0.27512 0.0277775 0.845 
-0.272047 0.0276132 0.84 
-0.269957 0.0275474 0.838 
-0.267874 0.0274817 0.836 
-0.266436 0.0274817 0.836 
-0.264998 0.0274817 0.836 
-0.262929 0.0274159 0.834 
-0.260867 0.0273502 0.832 
-0.258812 0.0272844 0.83 
-0.257384 0.0272844 0.83 
-0.255339 0.0272187 0.828 
-0.245607 0.026627 0.81 
-0.243309 0.0265284 0.807 
-0.241321 0.0264626 0.805 
-0.239936 0.0264626 0.805 
-0.237959 0.0263969 0.803 
-0.237166 0.0264626 0.805 
-0.235781 0.0264626 0.805 
-0.234979 0.0265284 0.807 
-0.234169 0.0265941 0.809 
-0.233065 0.026627 0.81 
-0.232243 0.0266927 0.812 
-0.231415 0.0267585 0.814 
-0.230579 0.0268242 0.816 
-0.229176 0.0268242 0.816 
-0.22833 0.02689 0.818 
-0.227477 0.0269557 0.82 
-0.226067 0.0269557 0.82 
-0.224656 0.0269557 0.82 
-0.223789 0.0270215 0.822 
-0.222375 0.0270215 0.822 
-0.220961 0.0270215 0.822 
-0.219547 0.0270215 0.822 
-0.218663 0.0270872 0.824 
-0.217773 0.0271529 0.826 
-0.216352 0.0271529 0.826 
-0.215451 0.0272187 0.828 
-0.214026 0.0272187 0.828 
-0.212602 0.0272187 0.828 
-0.211687 0.0272844 0.83 
-0.210259 0.0272844 0.83 
-0.208831 0.0272844 0.83 
-0.207903 0.0273502 0.832 
-0.206472 0.0273502 0.832 
-0.205533 0.0274159 0.834 
-0.204098 0.0274159 0.834 
-0.203149 0.0274817 0.836 
-0.201228 0.0274159 0.834 
-0.200272 0.0274817 0.836 
-0.198834 0.0274817 0.836 
-0.197396 0.0274817 0.836 
-0.195957 0.0274817 0.836 
-0.194054 0.0274159 0.834 
-0.192619 0.0274159 0.834 
-0.191642 0.0274817 0.836 
-0.0528094 0.0278433 0.847 
-0.0513522 0.0278433 0.847 
-0.0500127 0.027909 0.849 
-0.0486664 0.0279748 0.851 
-0.0472022 0.0279748 0.851 
-0.0458456 0.0280405 0.853 
-0.044378 0.0280405 0.853 
-0.0429104 0.0280405 0.853 
-0.0414428 0.0280405 0.853 
-0.0399752 0.0280405 0.853 
-0.0385076 0.0280405 0.853 
-0.0369532 0.0279748 0.851 
-0.0354891 0.0279748 0.851 
0.131188 0.0270215 0.822 
0.132602 0.0270215 0.822 
0.134016 0.0270215 0.822 
0.135431 0.0270215 0.822 
0.136845 0.0270215 0.822 
0.137923 0.0269557 0.82 
0.139333 0.0269557 0.82 
0.140744 0.0269557 0.82 
0.142155 0.0269557 0.82 
0.143566 0.0269557 0.82 
0.144977 0.0269557 0.82 
0.146745 0.0270215 0.822 
0.148159 0.0270215 0.822 
0.149573 0.0270215 0.822 
0.15062 0.0269557 0.82 
0.152402 0.0270215 0.822 
0.153816 0.0270215 0.822 
0.15523 0.0270215 0.822 
-0.307286 0.0299562 0.866 
-0.304384 0.0298178 0.862 
-0.302901 0.0298178 0.862 
-0.300369 0.0297141 0.859 
-0.298195 0.0296449 0.857 
-0.29672 0.0296449 0.857 
-0.294557 0.0295757 0.855 
-0.293086 0.0295757 0.855 
-0.291615 0.0295757 0.855 
-0.289465 0.0295065 0.853 
-0.287997 0.0295065 0.853 
-0.285062 0.0295065 0.853 
-0.28293 0.0294373 0.851 
-0.280804 0.0293681 0.849 
-0.278685 0.029299 0.847 
-0.277228 0.029299 0.847 
-0.27512 0.0292298 0.845 
-0.272694 0.029126 0.842 
-0.270601 0.0290568 0.84 
-0.268515 0.0289876 0.838 
-0.267073 0.0289876 0.838 
-0.264998 0.0289185 0.836 
-0.262929 0.0288493 0.834 
-0.261494 0.0288493 0.834 
-0.258812 0.0287109 0.83 
-0.257384 0.0287109 0.83 
-0.255339 0.0286417 0.828 
-0.252074 0.0284342 0.822 
-0.247611 0.0280883 0.812 
-0.244091 0.0278461 0.805 
-0.242706 0.0278461 0.805 
-0.241321 0.0278461 0.805 
-0.23934 0.0277769 0.803 
-0.237959 0.0277769 0.803 
-0.236577 0.0277769 0.803 
-0.235781 0.0278461 0.805 
-0.234396 0.0278461 0.805 
-0.23359 0.0279153 0.807 
-0.232777 0.0279845 0.809 
-0.232243 0.0280883 0.812 
-0.231415 0.0281574 0.814 
-0.230579 0.0282266 0.816 
-0.229737 0.0282958 0.818 
-0.22833 0.0282958 0.818 
-0.227477 0.028365 0.82 
-0.226067 0.028365 0.82 
-0.224656 0.028365 0.82 
-0.223789 0.0284342 0.822 
-0.222375 0.0284342 0.822 
-0.220961 0.0284342 0.822 
-0.220081 0.0285034 0.824 
-0.218663 0.0285034 0.824 
-0.217773 0.0285725 0.826 
-0.216352 0.0285725 0.826 
-0.215451 0.0286417 0.828 
-0.214026 0.0286417 0.828 
-0.212602 0.0286417 0.828 
-0.211687 0.0287109 0.83 
-0.210259 0.0287109 0.83 
-0.208831 0.0287109 0.83 
-0.207903 0.0287801 0.832 
-0.206472 0.0287801 0.832 
-0.205533 0.0288493 0.834 
-0.204098 0.0288493 0.834 
-0.203149 0.0289185 0.836 
-0.201228 0.0288493 0.834 
-0.200272 0.0289185 0.836 
-0.198834 0.0289185 0.836 
-0.197396 0.0289185 0.836 
-0.195957 0.0289185 0.836 
-0.194054 0.0288493 0.834 
-0.192619 0.0288493 0.834 
-0.191184 0.0288493 0.834 
-0.189749 0.0288493 0.834 
-0.0513522 0.029299 0.847 
-0.0498949 0.029299 0.847 
-0.048552 0.0293681 0.849 
-0.0472022 0.0294373 0.851 
-0.0458456 0.0295065 0.853 
-0.044378 0.0295065 0.853 
-0.0429104 0.0295065 0.853 
-0.0414428 0.0295065 0.853 
-0.0399752 0.0295065 0.853 
-0.0385076 0.0295065 0.853 
-0.0370401 0.0295065 0.853 
-0.0355725 0.0295065 0.853 
-0.0341049 0.0295065 0.853 
0.128359 0.0284342 0.822 
0.129774 0.0284342 0.822 
0.131188 0.0284342 0.822 
0.132602 0.0284342 0.822 
0.134016 0.0284342 0.822 
0.135431 0.0284342 0.822 
0.136845 0.0284342 0.822 
0.137923 0.028365 0.82 
0.139333 0.028365 0.82 
0.140744 0.028365 0.82 
0.142155 0.028365 0.82 
0.143566 0.028365 0.82 
0.144977 0.028365 0.82 
0.146745 0.0284342 0.822 
0.148159 0.0284342 0.822 
0.149573 0.0284342 0.822 
0.150987 0.0284342 0.822 
0.152402 0.0284342 0.822 
0.153816 0.0284342 0.822 
0.15523 0.0284342 0.822 
-0.307996 0.0315172 0.868 
-0.304384 0.0312993 0.862 
-0.302901 0.0312993 0.862 
-0.300369 0.0311904 0.859 
-0.298195 0.0311177 0.857 
-0.29672 0.0311177 0.857 
-0.294557 0.0310451 0.855 
-0.293086 0.0310451 0.855 
-0.291615 0.0310451 0.855 
-0.289465 0.0309725 0.853 
-0.287997 0.0309725 0.853 
-0.28653 0.0309725 0.853 
-0.285062 0.0309725 0.853 
-0.28293 0.0308999 0.851 
-0.281466 0.0308999 0.851 
-0.279343 0.0308273 0.849 
-0.277228 0.0307546 0.847 
-0.275771 0.0307546 0.847 
-0.273666 0.030682 0.845 
-0.271246 0.0305731 0.842 
-0.268515 0.0304279 0.838 
-0.267073 0.0304279 0.838 
-0.265632 0.0304279 0.838 
-0.262929 0.0302826 0.834 
-0.261494 0.0302826 0.834 
-0.259435 0.03021 0.832 
-0.257384 0.0301374 0.83 
-0.255339 0.0300648 0.828 
-0.250848 0.0297017 0.818 
-0.246696 0.0293749 0.809 
-0.244091 0.0292296 0.805 
-0.242706 0.0292296 0.805 
-0.241321 0.0292296 0.805 
-0.23934 0.029157 0.803 
-0.237959 0.029157 0.803 
-0.236577 0.029157 0.803 
-0.235781 0.0292296 0.805 
-0.234979 0.0293022 0.807 
-0.234169 0.0293749 0.809 
-0.233065 0.0294112 0.81 
-0.232243 0.0294838 0.812 
-0.231415 0.0295564 0.814 
-0.230579 0.029629 0.816 
-0.229737 0.0297017 0.818 
-0.228888 0.0297743 0.82 
-0.227477 0.0297743 0.82 
-0.226067 0.0297743 0.82 
-0.225204 0.0298469 0.822 
-0.223789 0.0298469 0.822 
-0.222916 0.0299195 0.824 
-0.221499 0.0299195 0.824 
-0.220081 0.0299195 0.824 
-0.219194 0.0299921 0.826 
-0.217773 0.0299921 0.826 
-0.216352 0.0299921 0.826 
-0.215451 0.0300648 0.828 
-0.214026 0.0300648 0.828 
-0.213115 0.0301374 0.83 
-0.211687 0.0301374 0.83 
-0.210259 0.0301374 0.83 
-0.208831 0.0301374 0.83 
-0.207903 0.03021 0.832 
-0.206472 0.03021 0.832 
-0.205533 0.0302826 0.834 
-0.204587 0.0303552 0.836 
-0.203149 0.0303552 0.836 
-0.201228 0.0302826 0.834 
-0.200272 0.0303552 0.836 
-0.198834 0.0303552 0.836 
-0.197396 0.0303552 0.836 
-0.195489 0.0302826 0.834 
-0.194054 0.0302826 0.834 
-0.192619 0.0302826 0.834 
-0.191184 0.0302826 0.834 
-0.189749 0.0302826 0.834 
-0.0513522 0.0307546 0.847 
-0.0498949 0.0307546 0.847 
-0.048552 0.0308273 0.849 
-0.0472022 0.0308999 0.851 
-0.0458456 0.0309725 0.853 
-0.044378 0.0309725 0.853 
-0.0429104 0.0309725 0.853 
-0.0414428 0.0309725 0.853 
-0.0399752 0.0309725 0.853 
-0.0385076 0.0309725 0.853 
-0.0370401 0.0309725 0.853 
-0.0355725 0.0309725 0.853 
-0.0341049 0.0309725 0.853 
-0.0326373 0.0309725 0.853 
0.124419 0.0299195 0.824 
0.125531 0.0298469 0.822 
0.126945 0.0298469 0.822 
0.128359 0.0298469 0.822 
0.129774 0.0298469 0.822 
0.131188 0.0298469 0.822 
0.132279 0.0297743 0.82 
0.134016 0.0298469 0.822 
0.135431 0.0298469 0.822 
0.136512 0.0297743 0.82 
0.137923 0.0297743 0.82 
0.139333 0.0297743 0.82 
0.140744 0.0297743 0.82 
0.142155 0.0297743 0.82 
0.143566 0.0297743 0.82 
0.144977 0.0297743 0.82 
0.146388 0.0297743 0.82 
0.147798 0.0297743 0.82 
0.149209 0.0297743 0.82 
0.15062 0.0297743 0.82 
0.152402 0.0298469 0.822 
0.153816 0.0298469 0.822 
0.15523 0.0298469 0.822 
0.156644 0.0298469 0.822 
-0.308706 0.033085 0.87 
-0.304384 0.0327808 0.862 
-0.302901 0.0327808 0.862 
-0.300369 0.0326667 0.859 
-0.298195 0.0325906 0.857 
-0.29672 0.0325906 0.857 
-0.294557 0.0325146 0.855 
-0.293086 0.0325146 0.855 
-0.291615 0.0325146 0.855 
-0.289465 0.0324385 0.853 
-0.287997 0.0324385 0.853 
-0.28653 0.0324385 0.853 
-0.285062 0.0324385 0.853 
-0.283595 0.0324385 0.853 
-0.281466 0.0323624 0.851 
-0.279343 0.0322864 0.849 
-0.277883 0.0322864 0.849 
-0.275771 0.0322103 0.847 
-0.273666 0.0321343 0.845 
-0.272212 0.0321343 0.845 
-0.269156 0.0319441 0.84 
-0.267073 0.0318681 0.838 
-0.265632 0.0318681 0.838 
-0.263559 0.031792 0.836 
-0.262121 0.031792 0.836 
-0.260059 0.031716 0.834 
-0.258004 0.0316399 0.832 
-0.256572 0.0316399 0.832 
-0.250848 0.0311075 0.818 
-0.245476 0.0306131 0.805 
-0.244091 0.0306131 0.805 
-0.242706 0.0306131 0.805 
-0.241321 0.0306131 0.805 
-0.23934 0.0305371 0.803 
-0.237959 0.0305371 0.803 
-0.237166 0.0306131 0.805 
-0.235781 0.0306131 0.805 
-0.234979 0.0306892 0.807 
-0.234169 0.0307652 0.809 
-0.233065 0.0308033 0.81 
-0.232243 0.0308793 0.812 
-0.231415 0.0309554 0.814 
-0.230579 0.0310314 0.816 
-0.229737 0.0311075 0.818 
-0.228888 0.0311836 0.82 
-0.227477 0.0311836 0.82 
-0.226618 0.0312596 0.822 
-0.225204 0.0312596 0.822 
-0.224334 0.0313357 0.824 
-0.222916 0.0313357 0.824 
-0.221499 0.0313357 0.824 
-0.220081 0.0313357 0.824 
-0.219194 0.0314117 0.826 
-0.2183 0.0314878 0.828 
-0.216875 0.0314878 0.828 
-0.215451 0.0314878 0.828 
-0.214026 0.0314878 0.828 
-0.213115 0.0315638 0.83 
-0.211687 0.0315638 0.83 
-0.210259 0.0315638 0.83 
-0.209334 0.0316399 0.832 
-0.208403 0.031716 0.834 
-0.206968 0.031716 0.834 
-0.205533 0.031716 0.834 
-0.204587 0.031792 0.836 
-0.203149 0.031792 0.836 
-0.201711 0.031792 0.836 
-0.200272 0.031792 0.836 
-0.198834 0.031792 0.836 
-0.197396 0.031792 0.836 
-0.195957 0.031792 0.836 
-0.194054 0.031716 0.834 
-0.192619 0.031716 0.834 
-0.191184 0.031716 0.834 
-0.189749 0.031716 0.834 
-0.0498949 0.0322103 0.847 
-0.048552 0.0322864 0.849 
-0.0472022 0.0323624 0.851 
-0.0458456 0.0324385 0.853 
-0.044378 0.0324385 0.853 
-0.0429104 0.0324385 0.853 
-0.0414428 0.0324385 0.853 
-0.040069 0.0325146 0.855 
-0.0385076 0.0324385 0.853 
-0.0370401 0.0324385 0.853 
-0.0355725 0.0324385 0.853 
-0.0341049 0.0324385 0.853 
-0.0327138 0.0325146 0.855 
0.11733 0.0313357 0.824 
0.118748 0.0313357 0.824 
0.120165 0.0313357 0.824 
0.121288 0.0312596 0.822 
0.122702 0.0312596 0.822 
0.124117 0.0312596 0.822 
0.125531 0.0312596 0.822 
0.126945 0.0312596 0.822 
0.128359 0.0312596 0.822 
0.129458 0.0311836 0.82 
0.131188 0.0312596 0.822 
0.132279 0.0311836 0.82 
0.13369 0.0311836 0.82 
0.135101 0.0311836 0.82 
0.136512 0.0311836 0.82 
0.137923 0.0311836 0.82 
0.139333 0.0311836 0.82 
0.140744 0.0311836 0.82 
0.142155 0.0311836 0.82 
0.143566 0.0311836 0.82 
0.144977 0.0311836 0.82 
0.146388 0.0311836 0.82 
0.148159 0.0312596 0.822 
0.149573 0.0312596 0.822 
0.150987 0.0312596 0.822 
0.152402 0.0312596 0.822 
0.15419 0.0313357 0.824 
0.155608 0.0313357 0.824 
0.156644 0.0312596 0.822 
-0.312698 0.0348584 0.877 
-0.304384 0.0342622 0.862 
-0.302901 0.0342622 0.862 
-0.300369 0.034143 0.859 
-0.298195 0.0340635 0.857 
-0.29672 0.0340635 0.857 
-0.294557 0.033984 0.855 
-0.293086 0.033984 0.855 
-0.291615 0.033984 0.855 
-0.290144 0.033984 0.855 
-0.287997 0.0339045 0.853 
-0.28653 0.0339045 0.853 
-0.285062 0.0339045 0.853 
