-0.251549 0.107378 0.864524 
-0.250034 0.107378 0.864524 
-0.248724 0.107443 0.865524 
-0.247208 0.107443 0.865524 
-0.245892 0.107508 0.866524 
-0.244373 0.107508 0.866524 
-0.243052 0.107573 0.867524 
-0.2304 0.10686 0.856524 
-0.228901 0.10686 0.856524 
-0.227223 0.106795 0.855524 
-0.225726 0.106795 0.855524 
-0.224053 0.106731 0.854524 
-0.222385 0.106666 0.853524 
-0.220892 0.106666 0.853524 
-0.219229 0.106601 0.852524 
-0.21757 0.106536 0.851524 
-0.21608 0.106536 0.851524 
-0.214591 0.106536 0.851524 
-0.213101 0.106536 0.851524 
-0.211772 0.106601 0.852524 
-0.210438 0.106666 0.853524 
-0.135394 0.106277 0.847524 
-0.133852 0.106213 0.846524 
-0.132253 0.106083 0.844524 
-0.13072 0.106018 0.843524 
-0.129135 0.105889 0.841524 
-0.127612 0.105824 0.840524 
-0.126092 0.105759 0.839524 
-0.124526 0.10563 0.837524 
-0.123015 0.105565 0.836524 
-0.121463 0.105435 0.834524 
-0.119962 0.105371 0.833524 
-0.118465 0.105306 0.832524 
-0.116932 0.105176 0.830524 
-0.115444 0.105112 0.829524 
-0.113924 0.104982 0.827524 
-0.112446 0.104917 0.826524 
-0.110939 0.104788 0.824524 
-0.109471 0.104723 0.823524 
-0.107977 0.104593 0.821524 
-0.106198 0.103752 0.808524 
-0.104766 0.103687 0.807524 
-0.103337 0.103622 0.806524 
-0.101933 0.103622 0.806524 
-0.10053 0.103622 0.806524 
-0.099143 0.103687 0.807524 
-0.0977525 0.103752 0.808524 
-0.0964915 0.104464 0.819524 
-0.0950858 0.104593 0.821524 
-0.093663 0.104658 0.822524 
-0.0922363 0.104723 0.823524 
-0.0908058 0.104788 0.824524 
-0.0893753 0.104917 0.826524 
-0.0879353 0.104982 0.827524 
-0.0864915 0.105047 0.828524 
-0.0850439 0.105112 0.829524 
-0.0835925 0.105176 0.830524 
-0.0821372 0.105241 0.831524 
-0.0806782 0.105306 0.832524 
-0.0792153 0.105371 0.833524 
-0.0777487 0.105435 0.834524 
-0.0762782 0.1055 0.835524 
-0.0748039 0.105565 0.836524 
-0.0733258 0.10563 0.837524 
-0.0718439 0.105694 0.838524 
-0.0703582 0.105759 0.839524 
-0.0688687 0.105824 0.840524 
-0.0673753 0.105889 0.841524 
-0.0658782 0.105953 0.842524 
-0.0643772 0.106018 0.843524 
0.11711 0.105694 0.838524 
0.118308 0.10563 0.837524 
0.119503 0.105565 0.836524 
0.120693 0.1055 0.835524 
0.122152 0.1055 0.835524 
0.123337 0.105435 0.834524 
0.12507 0.1055 0.835524 
0.126529 0.1055 0.835524 
-0.272164 0.109159 0.868524 
-0.270412 0.109093 0.867524 
-0.263217 0.108759 0.862524 
-0.261707 0.108759 0.862524 
-0.260196 0.108759 0.862524 
-0.258686 0.108759 0.862524 
-0.257391 0.108826 0.863524 
-0.255878 0.108826 0.863524 
-0.254366 0.108826 0.863524 
-0.252853 0.108826 0.863524 
-0.251549 0.108893 0.864524 
-0.250034 0.108893 0.864524 
-0.248724 0.108959 0.865524 
-0.247208 0.108959 0.865524 
-0.245692 0.108959 0.865524 
-0.244373 0.109026 0.866524 
-0.242855 0.109026 0.866524 
-0.233585 0.108426 0.857524 
-0.231899 0.108359 0.856524 
-0.2304 0.108359 0.856524 
-0.22872 0.108293 0.855524 
-0.227044 0.108226 0.854524 
-0.225549 0.108226 0.854524 
-0.223878 0.108159 0.853524 
-0.222385 0.108159 0.853524 
-0.22072 0.108093 0.852524 
-0.219059 0.108026 0.851524 
-0.21757 0.108026 0.851524 
-0.215914 0.107959 0.850524 
-0.214591 0.108026 0.851524 
-0.213101 0.108026 0.851524 
-0.211772 0.108093 0.852524 
-0.21028 0.108093 0.852524 
-0.135394 0.107759 0.847524 
-0.133852 0.107693 0.846524 
-0.132312 0.107626 0.845524 
-0.13072 0.107493 0.843524 
-0.129191 0.107426 0.842524 
-0.127612 0.107293 0.840524 
-0.126092 0.107226 0.839524 
-0.124575 0.107159 0.838524 
-0.123015 0.107026 0.836524 
-0.121509 0.106959 0.835524 
-0.119962 0.106826 0.833524 
-0.118465 0.106759 0.832524 
-0.116932 0.106626 0.830524 
-0.115444 0.106559 0.829524 
-0.11396 0.106493 0.828524 
-0.112446 0.106359 0.826524 
-0.110939 0.106226 0.824524 
-0.109471 0.106159 0.823524 
-0.107634 0.105226 0.809524 
-0.106172 0.105093 0.807524 
-0.104741 0.105026 0.806524 
-0.103337 0.105026 0.806524 
-0.101933 0.105026 0.806524 
-0.10053 0.105026 0.806524 
-0.0991258 0.105026 0.806524 
-0.0977372 0.105093 0.807524 
-0.0964915 0.105893 0.819524 
-0.0950858 0.106026 0.821524 
-0.093663 0.106092 0.822524 
-0.0922363 0.106159 0.823524 
-0.0908058 0.106226 0.824524 
-0.0893753 0.106359 0.826524 
-0.0879353 0.106426 0.827524 
-0.0864915 0.106493 0.828524 
-0.0850439 0.106559 0.829524 
-0.0835925 0.106626 0.830524 
-0.0821372 0.106693 0.831524 
-0.0806782 0.106759 0.832524 
-0.0792153 0.106826 0.833524 
-0.0777487 0.106893 0.834524 
-0.0762782 0.106959 0.835524 
-0.0748039 0.107026 0.836524 
-0.0733258 0.107092 0.837524 
-0.0718439 0.107159 0.838524 
-0.0703582 0.107226 0.839524 
-0.0688687 0.107293 0.840524 
-0.0673753 0.107359 0.841524 
-0.0658782 0.107426 0.842524 
-0.0643772 0.107493 0.843524 
0.0587351 0.107759 0.847524 
0.0600285 0.107693 0.846524 
0.0615085 0.107693 0.846524 
0.0629885 0.107693 0.846524 
0.0646628 0.107759 0.847524 
0.11711 0.107159 0.838524 
0.118308 0.107092 0.837524 
0.119503 0.107026 0.836524 
0.120964 0.107026 0.836524 
0.122152 0.106959 0.835524 
0.123611 0.106959 0.835524 
-0.272396 0.11075 0.869524 
-0.270412 0.110613 0.867524 
-0.261928 0.110338 0.863524 
-0.260415 0.110338 0.863524 
-0.258686 0.11027 0.862524 
-0.257391 0.110338 0.863524 
-0.255878 0.110338 0.863524 
-0.254366 0.110338 0.863524 
-0.252853 0.110338 0.863524 
-0.251341 0.110338 0.863524 
-0.250034 0.110407 0.864524 
-0.24852 0.110407 0.864524 
-0.247208 0.110475 0.865524 
-0.245692 0.110475 0.865524 
-0.244373 0.110544 0.866524 
-0.242855 0.110544 0.866524 
-0.241532 0.110613 0.867524 
-0.238472 0.110064 0.859524 
-0.236777 0.109995 0.858524 
-0.235086 0.109927 0.857524 
-0.233398 0.109858 0.856524 
-0.231899 0.109858 0.856524 
-0.230217 0.10979 0.855524 
-0.228539 0.109721 0.854524 
-0.227044 0.109721 0.854524 
-0.225372 0.109653 0.853524 
-0.223878 0.109653 0.853524 
-0.222212 0.109584 0.852524 
-0.220549 0.109515 0.851524 
-0.219059 0.109515 0.851524 
-0.217402 0.109447 0.850524 
-0.215914 0.109447 0.850524 
-0.214427 0.109447 0.850524 
-0.213101 0.109515 0.851524 
-0.211772 0.109584 0.852524 
-0.21028 0.109584 0.852524 
-0.135457 0.10931 0.848524 
-0.133852 0.109173 0.846524 
-0.132312 0.109104 0.845524 
-0.130777 0.109035 0.844524 
-0.129191 0.108898 0.842524 
-0.127665 0.10883 0.841524 
-0.126092 0.108693 0.839524 
-0.124575 0.108624 0.838524 
-0.123015 0.108487 0.836524 
-0.121509 0.108418 0.835524 
-0.120006 0.10835 0.834524 
-0.118465 0.108213 0.832524 
-0.116972 0.108144 0.831524 
-0.115444 0.108007 0.829524 
-0.112446 0.107801 0.826524 
-0.110972 0.107733 0.825524 
-0.109471 0.107595 0.823524 
-0.107577 0.106498 0.807524 
-0.106145 0.10643 0.806524 
-0.104741 0.10643 0.806524 
-0.103337 0.10643 0.806524 
-0.101933 0.10643 0.806524 
-0.10053 0.10643 0.806524 
-0.0991258 0.10643 0.806524 
-0.097722 0.10643 0.806524 
-0.0964649 0.107184 0.817524 
-0.0950744 0.10739 0.820524 
-0.093663 0.107527 0.822524 
-0.0922363 0.107595 0.823524 
-0.0908058 0.107664 0.824524 
-0.0893715 0.107733 0.825524 
-0.0879353 0.10787 0.827524 
-0.0864915 0.107938 0.828524 
-0.0850439 0.108007 0.829524 
-0.0835925 0.108075 0.830524 
-0.0821372 0.108144 0.831524 
-0.0806782 0.108213 0.832524 
-0.0792153 0.108281 0.833524 
-0.0777487 0.10835 0.834524 
-0.0762782 0.108418 0.835524 
-0.0748039 0.108487 0.836524 
-0.0733258 0.108555 0.837524 
-0.0718439 0.108624 0.838524 
-0.0703582 0.108693 0.839524 
-0.0688687 0.108761 0.840524 
-0.0673753 0.10883 0.841524 
-0.0658782 0.108898 0.842524 
-0.0643772 0.108967 0.843524 
0.0559542 0.10931 0.848524 
0.0572532 0.109241 0.847524 
0.0585485 0.109173 0.846524 
0.0600285 0.109173 0.846524 
0.0615085 0.109173 0.846524 
0.0629885 0.109173 0.846524 
0.0644685 0.109173 0.846524 
0.11711 0.108624 0.838524 
0.118308 0.108555 0.837524 
0.119771 0.108555 0.837524 
-0.261928 0.111851 0.863524 
-0.260415 0.111851 0.863524 
-0.258903 0.111851 0.863524 
-0.257391 0.111851 0.863524 
-0.255878 0.111851 0.863524 
-0.254366 0.111851 0.863524 
-0.252853 0.111851 0.863524 
-0.251341 0.111851 0.863524 
-0.250034 0.111921 0.864524 
-0.24852 0.111921 0.864524 
-0.247006 0.111921 0.864524 
-0.245692 0.111992 0.865524 
-0.244373 0.112062 0.866524 
-0.241482 0.111569 0.859524 
-0.239783 0.111498 0.858524 
-0.238088 0.111428 0.857524 
-0.236587 0.111428 0.857524 
-0.234897 0.111357 0.856524 
-0.233398 0.111357 0.856524 
-0.231714 0.111287 0.855524 
-0.230034 0.111216 0.854524 
-0.228539 0.111216 0.854524 
-0.226865 0.111146 0.853524 
-0.225194 0.111075 0.852524 
-0.223703 0.111075 0.852524 
-0.222038 0.111005 0.851524 
-0.220549 0.111005 0.851524 
-0.21889 0.110934 0.850524 
-0.217234 0.110864 0.849524 
-0.215914 0.110934 0.850524 
-0.214427 0.110934 0.850524 
-0.213101 0.111005 0.851524 
-0.211612 0.111005 0.851524 
-0.21028 0.111075 0.852524 
-0.208945 0.111146 0.853524 
-0.135457 0.110793 0.848524 
-0.133912 0.110723 0.847524 
-0.132312 0.110582 0.845524 
-0.130777 0.110512 0.844524 
-0.129191 0.110371 0.842524 
-0.127665 0.1103 0.841524 
-0.126143 0.11023 0.840524 
-0.124575 0.110089 0.838524 
-0.123063 0.110018 0.837524 
-0.121509 0.109877 0.835524 
-0.120006 0.109807 0.834524 
-0.118465 0.109666 0.832524 
-0.116972 0.109595 0.831524 
-0.115482 0.109525 0.830524 
-0.112446 0.109243 0.826524 
-0.110939 0.109102 0.824524 
-0.10944 0.108961 0.822524 
-0.107577 0.107904 0.807524 
-0.106172 0.107904 0.807524 
-0.104741 0.107833 0.806524 
-0.103337 0.107833 0.806524 
-0.101933 0.107833 0.806524 
-0.10053 0.107833 0.806524 
-0.0963449 0.107974 0.808524 
-0.0950744 0.10882 0.820524 
-0.093663 0.108961 0.822524 
-0.0922363 0.109032 0.823524 
-0.0908058 0.109102 0.824524 
-0.0893715 0.109173 0.825524 
-0.0879334 0.109243 0.826524 
-0.0864915 0.109313 0.827524 
-0.0850439 0.109454 0.829524 
-0.0835925 0.109525 0.830524 
-0.0821372 0.109595 0.831524 
-0.0806782 0.109666 0.832524 
-0.0792153 0.109736 0.833524 
-0.0777487 0.109807 0.834524 
-0.0762782 0.109877 0.835524 
-0.0748039 0.109948 0.836524 
-0.0733258 0.110018 0.837524 
-0.0718439 0.110089 0.838524 
-0.0703582 0.110159 0.839524 
-0.0688687 0.11023 0.840524 
-0.0673753 0.1103 0.841524 
-0.0658782 0.110371 0.842524 
-0.0643772 0.110441 0.843524 
0.0544704 0.110793 0.848524 
0.0557713 0.110723 0.847524 
0.0570685 0.110653 0.846524 
0.0583618 0.110582 0.845524 
0.0598399 0.110582 0.845524 
0.061318 0.110582 0.845524 
0.0627961 0.110582 0.845524 
0.0642742 0.110582 0.845524 
0.0659485 0.110653 0.846524 
0.119771 0.110018 0.837524 
0.120964 0.109948 0.836524 
-0.261928 0.113363 0.863524 
-0.260415 0.113363 0.863524 
-0.258903 0.113363 0.863524 
-0.257391 0.113363 0.863524 
-0.255878 0.113363 0.863524 
-0.254366 0.113363 0.863524 
-0.252853 0.113363 0.863524 
-0.251341 0.113363 0.863524 
-0.249829 0.113363 0.863524 
-0.248316 0.113363 0.863524 
-0.247006 0.113435 0.864524 
-0.244492 0.113073 0.859524 
-0.242789 0.113001 0.858524 
-0.24109 0.112929 0.857524 
-0.239589 0.112929 0.857524 
-0.238088 0.112929 0.857524 
-0.236396 0.112856 0.856524 
-0.234897 0.112856 0.856524 
-0.233212 0.112784 0.855524 
-0.23153 0.112712 0.854524 
-0.230034 0.112712 0.854524 
-0.228358 0.112639 0.853524 
-0.226686 0.112567 0.852524 
-0.225194 0.112567 0.852524 
-0.223528 0.112494 0.851524 
-0.222038 0.112494 0.851524 
-0.220377 0.112422 0.850524 
-0.21872 0.11235 0.849524 
-0.217234 0.11235 0.849524 
-0.215749 0.11235 0.849524 
-0.214427 0.112422 0.850524 
-0.213101 0.112494 0.851524 
-0.211612 0.112494 0.851524 
-0.21028 0.112567 0.852524 
-0.208945 0.112639 0.853524 
-0.135457 0.112277 0.848524 
-0.133912 0.112205 0.847524 
-0.132372 0.112133 0.846524 
-0.130777 0.111988 0.844524 
-0.129246 0.111915 0.843524 
-0.127665 0.111771 0.841524 
-0.126143 0.111698 0.840524 
-0.124575 0.111553 0.838524 
-0.123063 0.111481 0.837524 
-0.121554 0.111409 0.836524 
-0.120006 0.111264 0.834524 
-0.118507 0.111192 0.833524 
-0.115482 0.110974 0.830524 
-0.110939 0.11054 0.824524 
-0.10944 0.110395 0.822524 
-0.107577 0.10931 0.807524 
-0.106172 0.10931 0.807524 
-0.104766 0.10931 0.807524 
-0.10336 0.10931 0.807524 
-0.101954 0.10931 0.807524 
-0.10053 0.109237 0.806524 
-0.0950972 0.110395 0.822524 
-0.0936725 0.110468 0.823524 
-0.0922363 0.110468 0.823524 
-0.0908058 0.11054 0.824524 
-0.0893715 0.110613 0.825524 
-0.0879334 0.110685 0.826524 
-0.0864915 0.110757 0.827524 
-0.0850458 0.11083 0.828524 
-0.0835963 0.110902 0.829524 
-0.0821372 0.111047 0.831524 
-0.0806782 0.111119 0.832524 
-0.0792153 0.111192 0.833524 
-0.0777487 0.111264 0.834524 
-0.0762782 0.111336 0.835524 
-0.0748039 0.111409 0.836524 
-0.0733258 0.111481 0.837524 
-0.0718439 0.111553 0.838524 
-0.0703582 0.111626 0.839524 
-0.0688687 0.111698 0.840524 
-0.0673753 0.111771 0.841524 
-0.0658782 0.111843 0.842524 
-0.0643487 0.111988 0.844524 
-0.062842 0.11206 0.845524 
0.0529866 0.112277 0.848524 
0.0542894 0.112205 0.847524 
0.0555885 0.112133 0.846524 
0.0568837 0.11206 0.845524 
0.0583618 0.11206 0.845524 
0.0598399 0.11206 0.845524 
0.061318 0.11206 0.845524 
0.0627961 0.11206 0.845524 
0.0642742 0.11206 0.845524 
0.0657523 0.11206 0.845524 
0.0674285 0.112133 0.846524 
0.117375 0.111626 0.839524 
0.119771 0.111481 0.837524 
-0.261928 0.114875 0.863524 
-0.260415 0.114875 0.863524 
-0.258903 0.114875 0.863524 
-0.257391 0.114875 0.863524 
-0.255878 0.114875 0.863524 
-0.254154 0.114801 0.862524 
-0.252644 0.114801 0.862524 
-0.251133 0.114801 0.862524 
-0.249212 0.114653 0.860524 
-0.247501 0.114578 0.859524 
-0.245794 0.114504 0.858524 
-0.244292 0.114504 0.858524 
-0.242591 0.11443 0.857524 
-0.24109 0.11443 0.857524 
-0.239394 0.114355 0.856524 
-0.237895 0.114355 0.856524 
-0.236206 0.114281 0.855524 
-0.234709 0.114281 0.855524 
-0.233025 0.114207 0.854524 
-0.23153 0.114207 0.854524 
-0.229852 0.114133 0.853524 
-0.228177 0.114058 0.852524 
-0.226686 0.114058 0.852524 
-0.225017 0.113984 0.851524 
-0.223528 0.113984 0.851524 
-0.221865 0.11391 0.850524 
-0.220206 0.113835 0.849524 
-0.218551 0.113761 0.848524 
-0.217234 0.113835 0.849524 
-0.215749 0.113835 0.849524 
-0.214427 0.11391 0.850524 
-0.213101 0.113984 0.851524 
-0.211612 0.113984 0.851524 
-0.21028 0.114058 0.852524 
-0.208945 0.114133 0.853524 
-0.207606 0.114207 0.854524 
-0.133912 0.113687 0.847524 
-0.132372 0.113613 0.846524 
-0.130777 0.113464 0.844524 
-0.129246 0.11339 0.843524 
-0.127665 0.113241 0.841524 
-0.126143 0.113167 0.840524 
-0.124625 0.113093 0.839524 
-0.123063 0.112944 0.837524 
-0.121554 0.11287 0.836524 
-0.120006 0.112721 0.834524 
-0.118507 0.112647 0.833524 
-0.110939 0.111978 0.824524 
-0.109044 0.110864 0.809524 
-0.107577 0.110715 0.807524 
-0.106172 0.110715 0.807524 
-0.104766 0.110715 0.807524 
-0.10336 0.110715 0.807524 
-0.101954 0.110715 0.807524 
-0.10053 0.110641 0.806524 
-0.0951201 0.111978 0.824524 
-0.0936915 0.112053 0.825524 
-0.0922515 0.112053 0.825524 
-0.0908172 0.112127 0.826524 
-0.0893753 0.112127 0.826524 
-0.0879353 0.112201 0.827524 
-0.0864915 0.112275 0.828524 
-0.0850439 0.11235 0.829524 
-0.0835963 0.11235 0.829524 
-0.0821372 0.112498 0.831524 
-0.0806782 0.112573 0.832524 
-0.0792153 0.112647 0.833524 
-0.0777487 0.112721 0.834524 
-0.0762782 0.112795 0.835524 
-0.0748039 0.11287 0.836524 
-0.0733258 0.112944 0.837524 
-0.0718439 0.113018 0.838524 
-0.0703582 0.113093 0.839524 
-0.0688687 0.113167 0.840524 
-0.0673753 0.113241 0.841524 
-0.0658782 0.113315 0.842524 
-0.0643772 0.11339 0.843524 
-0.062842 0.113538 0.845524 
0.0515028 0.113761 0.848524 
0.0528075 0.113687 0.847524 
0.0541085 0.113613 0.846524 
0.0555885 0.113613 0.846524 
0.0568837 0.113538 0.845524 
0.0583618 0.113538 0.845524 
0.0596513 0.113464 0.844524 
0.0611275 0.113464 0.844524 
0.0626037 0.113464 0.844524 
0.0642742 0.113538 0.845524 
0.0657523 0.113538 0.845524 
0.0674285 0.113613 0.846524 
0.117375 0.113093 0.839524 
0.118575 0.113018 0.838524 
0.119771 0.112944 0.837524 
0.120964 0.11287 0.836524 
0.123242 0.113093 0.839524 
-0.263886 0.11654 0.865524 
-0.262149 0.116464 0.864524 
-0.260415 0.116388 0.863524 
-0.258686 0.116312 0.862524 
-0.257175 0.116312 0.862524 
-0.255665 0.116312 0.862524 
-0.254154 0.116312 0.862524 
-0.252434 0.116235 0.861524 
-0.250511 0.116083 0.859524 
-0.2488 0.116007 0.858524 
-0.247297 0.116007 0.858524 
-0.245592 0.115931 0.857524 
-0.244092 0.115931 0.857524 
-0.242392 0.115854 0.856524 
-0.240893 0.115854 0.856524 
-0.239394 0.115854 0.856524 
-0.237703 0.115778 0.855524 
-0.236206 0.115778 0.855524 
-0.23452 0.115702 0.854524 
-0.233025 0.115702 0.854524 
-0.231345 0.115626 0.853524 
-0.229669 0.11555 0.852524 
-0.228177 0.11555 0.852524 
-0.226507 0.115473 0.851524 
-0.22484 0.115397 0.850524 
-0.223352 0.115397 0.850524 
-0.221692 0.115321 0.849524 
-0.220034 0.115245 0.848524 
-0.218551 0.115245 0.848524 
-0.217067 0.115245 0.848524 
-0.215749 0.115321 0.849524 
-0.214427 0.115397 0.850524 
-0.213101 0.115473 0.851524 
-0.211612 0.115473 0.851524 
-0.21028 0.11555 0.852524 
-0.208789 0.11555 0.852524 
-0.207452 0.115626 0.853524 
-0.13552 0.115321 0.849524 
-0.133912 0.115169 0.847524 
-0.132372 0.115093 0.846524 
-0.130834 0.115016 0.845524 
-0.129246 0.114864 0.843524 
-0.127718 0.114788 0.842524 
-0.126143 0.114635 0.840524 
-0.124625 0.114559 0.839524 
-0.123063 0.114407 0.837524 
-0.121554 0.114331 0.836524 
-0.120006 0.114178 0.834524 
-0.118465 0.114026 0.832524 
-0.115444 0.113797 0.829524 
-0.110972 0.113493 0.825524 
-0.109532 0.113493 0.825524 
-0.107606 0.112197 0.808524 
-0.106172 0.112121 0.807524 
-0.104766 0.112121 0.807524 
-0.10336 0.112121 0.807524 
-0.101954 0.112121 0.807524 
-0.0965715 0.113493 0.825524 
-0.0951315 0.113493 0.825524 
-0.093701 0.113569 0.826524 
-0.0922668 0.113645 0.827524 
-0.090823 0.113645 0.827524 
-0.089383 0.113721 0.828524 
-0.0879391 0.113797 0.829524 
-0.0864915 0.113797 0.829524 
-0.085042 0.113873 0.830524 
-0.0835925 0.113873 0.830524 
-0.0821372 0.11395 0.831524 
-0.0806782 0.114026 0.832524 
-0.0792153 0.114102 0.833524 
-0.0777487 0.114178 0.834524 
-0.0762782 0.114254 0.835524 
-0.0748039 0.114331 0.836524 
-0.0733258 0.114407 0.837524 
-0.0718439 0.114483 0.838524 
-0.0703582 0.114559 0.839524 
-0.0688687 0.114635 0.840524 
-0.0673753 0.114712 0.841524 
-0.0658782 0.114788 0.842524 
-0.0643772 0.114864 0.843524 
-0.062842 0.115016 0.845524 
0.050019 0.115245 0.848524 
0.0513256 0.115169 0.847524 
0.0526285 0.115093 0.846524 
0.0541085 0.115093 0.846524 
0.0554056 0.115016 0.845524 
0.0568837 0.115016 0.845524 
0.0581751 0.11494 0.844524 
0.0596513 0.11494 0.844524 
0.0611275 0.11494 0.844524 
0.0626037 0.11494 0.844524 
0.0640799 0.11494 0.844524 
0.0657523 0.115016 0.845524 
0.0672304 0.115016 0.845524 
0.0689085 0.115093 0.846524 
0.117375 0.114559 0.839524 
0.118308 0.114407 0.837524 
0.121234 0.114407 0.837524 
0.123514 0.114635 0.840524 
-0.267598 0.118291 0.868524 
-0.264109 0.118134 0.866524 
-0.262149 0.117978 0.864524 
-0.260415 0.1179 0.863524 
-0.258686 0.117822 0.862524 
-0.257175 0.117822 0.862524 
-0.255452 0.117744 0.861524 
-0.25352 0.117588 0.859524 
-0.251806 0.11751 0.858524 
-0.250303 0.11751 0.858524 
-0.248594 0.117432 0.857524 
-0.247093 0.117432 0.857524 
-0.245592 0.117432 0.857524 
-0.243892 0.117353 0.856524 
-0.242392 0.117353 0.856524 
-0.240697 0.117275 0.855524 
-0.2392 0.117275 0.855524 
-0.237511 0.117197 0.854524 
-0.236015 0.117197 0.854524 
-0.23452 0.117197 0.854524 
-0.232838 0.117119 0.853524 
-0.23116 0.117041 0.852524 
-0.229669 0.117041 0.852524 
-0.227996 0.116963 0.851524 
-0.226328 0.116885 0.850524 
-0.22484 0.116885 0.850524 
-0.223177 0.116807 0.849524 
-0.221518 0.116729 0.848524 
-0.219863 0.116651 0.847524 
-0.218381 0.116651 0.847524 
-0.217067 0.116729 0.848524 
-0.215749 0.116807 0.849524 
-0.214427 0.116885 0.850524 
-0.213101 0.116963 0.851524 
-0.211612 0.116963 0.851524 
-0.21028 0.117041 0.852524 
-0.208789 0.117041 0.852524 
-0.207452 0.117119 0.853524 
-0.13552 0.116807 0.849524 
-0.133973 0.116729 0.848524 
-0.132372 0.116572 0.846524 
-0.130834 0.116494 0.845524 
-0.129246 0.116338 0.843524 
-0.127718 0.11626 0.842524 
-0.126194 0.116182 0.841524 
-0.124625 0.116026 0.839524 
-0.123063 0.11587 0.837524 
-0.121554 0.115792 0.836524 
-0.120006 0.115635 0.834524 
-0.118465 0.115479 0.832524 
-0.116932 0.115323 0.830524 
-0.115444 0.115245 0.829524 
-0.108149 0.115089 0.827524 
-0.106705 0.115089 0.827524 
-0.105236 0.115011 0.826524 
-0.0965849 0.115011 0.826524 
-0.0951544 0.115089 0.827524 
-0.0937106 0.115089 0.827524 
-0.0922744 0.115167 0.828524 
-0.0908344 0.115245 0.829524 
-0.0893868 0.115245 0.829524 
-0.0879411 0.115323 0.830524 
-0.0864915 0.115401 0.831524 
-0.0850401 0.115401 0.831524 
-0.0835849 0.115479 0.832524 
-0.0821258 0.115557 0.833524 
-0.0806706 0.115557 0.833524 
-0.0792058 0.115635 0.834524 
-0.0777487 0.115635 0.834524 
-0.0762782 0.115713 0.835524 
-0.0748039 0.115792 0.836524 
-0.0733258 0.11587 0.837524 
-0.071863 0.11587 0.837524 
-0.0703791 0.115948 0.838524 
-0.0688915 0.116026 0.839524 
-0.0674001 0.116104 0.840524 
-0.0659049 0.116182 0.841524 
-0.0643772 0.116338 0.843524 
-0.0628725 0.116416 0.844524 
0.0487085 0.116807 0.849524 
0.0498437 0.116651 0.847524 
0.0513256 0.116651 0.847524 
0.0526285 0.116572 0.846524 
0.0539275 0.116494 0.845524 
0.0554056 0.116494 0.845524 
0.0566989 0.116416 0.844524 
0.0581751 0.116416 0.844524 
0.0596513 0.116416 0.844524 
0.0611275 0.116416 0.844524 
0.0626037 0.116416 0.844524 
0.0640799 0.116416 0.844524 
0.0655561 0.116416 0.844524 
0.0672304 0.116494 0.845524 
0.0687085 0.116494 0.845524 
0.0705904 0.116651 0.847524 
0.118575 0.115948 0.838524 
-0.267825 0.119893 0.869524 
-0.265852 0.119733 0.867524 
-0.264109 0.119653 0.866524 
-0.26237 0.119573 0.865524 
-0.260196 0.119333 0.862524 
-0.258469 0.119253 0.861524 
-0.25653 0.119093 0.859524 
-0.255025 0.119093 0.859524 
-0.253309 0.119013 0.858524 
-0.251806 0.119013 0.858524 
-0.250095 0.118933 0.857524 
-0.248594 0.118933 0.857524 
-0.24689 0.118853 0.856524 
-0.245391 0.118853 0.856524 
-0.243892 0.118853 0.856524 
-0.242194 0.118773 0.855524 
-0.240697 0.118773 0.855524 
-0.239006 0.118693 0.854524 
-0.237511 0.118693 0.854524 
-0.235825 0.118613 0.853524 
-0.234332 0.118613 0.853524 
-0.232652 0.118533 0.852524 
-0.23116 0.118533 0.852524 
-0.229486 0.118453 0.851524 
-0.227815 0.118372 0.850524 
-0.226328 0.118372 0.850524 
-0.224663 0.118293 0.849524 
-0.223002 0.118213 0.848524 
-0.221345 0.118133 0.847524 
-0.219863 0.118133 0.847524 
-0.218381 0.118133 0.847524 
-0.217067 0.118213 0.848524 
-0.215749 0.118293 0.849524 
-0.214427 0.118372 0.850524 
-0.212939 0.118372 0.850524 
-0.211612 0.118453 0.851524 
-0.21028 0.118533 0.852524 
-0.208789 0.118533 0.852524 
-0.207452 0.118613 0.853524 
-0.206111 0.118693 0.854524 
-0.13552 0.118293 0.849524 
-0.133973 0.118213 0.848524 
-0.132372 0.118053 0.846524 
-0.130834 0.117973 0.845524 
-0.129301 0.117893 0.844524 
-0.127718 0.117733 0.842524 
-0.126194 0.117653 0.841524 
-0.124625 0.117493 0.839524 
-0.123063 0.117333 0.837524 
-0.121509 0.117173 0.835524 
-0.120006 0.117093 0.834524 
-0.118465 0.116933 0.832524 
-0.116972 0.116853 0.831524 
-0.11552 0.116853 0.831524 
-0.114069 0.116853 0.831524 
-0.112617 0.116853 0.831524 
-0.108206 0.116693 0.829524 
-0.106732 0.116613 0.828524 
-0.0965982 0.116533 0.827524 
-0.0951658 0.116613 0.828524 
-0.0937296 0.116693 0.829524 
-0.092282 0.116693 0.829524 
-0.0908401 0.116773 0.830524 
-0.0893944 0.116853 0.831524 
-0.087943 0.116853 0.831524 
-0.0864915 0.116933 0.832524 
-0.0850363 0.117013 0.833524 
-0.083581 0.117013 0.833524 
-0.0821201 0.117093 0.834524 
-0.0806553 0.117173 0.835524 
-0.0791963 0.117173 0.835524 
-0.0777258 0.117253 0.836524 
-0.0762649 0.117253 0.836524 
-0.0747887 0.117333 0.837524 
-0.0733258 0.117333 0.837524 
-0.0718439 0.117413 0.838524 
-0.0703791 0.117413 0.838524 
-0.0689144 0.117413 0.838524 
-0.0674249 0.117493 0.839524 
-0.0659315 0.117573 0.840524 
-0.0644344 0.117653 0.841524 
-0.0629029 0.117813 0.843524 
-0.0613639 0.117973 0.845524 
0.0472228 0.118293 0.849524 
0.0485352 0.118213 0.848524 
0.0498437 0.118133 0.847524 
0.0511485 0.118053 0.846524 
0.0526285 0.118053 0.846524 
0.0539275 0.117973 0.845524 
0.0554056 0.117973 0.845524 
0.0566989 0.117893 0.844524 
0.0579885 0.117813 0.843524 
0.0594628 0.117813 0.843524 
0.0609371 0.117813 0.843524 
0.0624113 0.117813 0.843524 
0.0640799 0.117893 0.844524 
0.0655561 0.117893 0.844524 
0.0670323 0.117893 0.844524 
0.0687085 0.117973 0.845524 
0.0703885 0.118053 0.846524 
0.118575 0.117413 0.838524 
-0.266076 0.121334 0.868524 
-0.264332 0.121253 0.867524 
-0.26237 0.121089 0.865524 
-0.259539 0.120597 0.859524 
-0.258034 0.120597 0.859524 
-0.256314 0.120515 0.858524 
-0.254812 0.120515 0.858524 
-0.253097 0.120433 0.857524 
-0.251596 0.120433 0.857524 
-0.250095 0.120433 0.857524 
-0.248389 0.120352 0.856524 
-0.24689 0.120352 0.856524 
-0.245189 0.12027 0.855524 
-0.243692 0.12027 0.855524 
-0.241996 0.120188 0.854524 
-0.240501 0.120188 0.854524 
-0.239006 0.120188 0.854524 
-0.237318 0.120106 0.853524 
-0.235825 0.120106 0.853524 
-0.234143 0.120024 0.852524 
-0.232652 0.120024 0.852524 
-0.230975 0.119942 0.851524 
-0.229303 0.11986 0.850524 
-0.227815 0.11986 0.850524 
-0.226149 0.119778 0.849524 
-0.224486 0.119696 0.848524 
-0.222827 0.119614 0.847524 
-0.221172 0.119533 0.846524 
-0.219692 0.119533 0.846524 
-0.218381 0.119614 0.847524 
-0.217067 0.119696 0.848524 
-0.215749 0.119778 0.849524 
-0.214427 0.11986 0.850524 
-0.212939 0.11986 0.850524 
-0.211612 0.119942 0.851524 
-0.21028 0.120024 0.852524 
-0.208789 0.120024 0.852524 
-0.207452 0.120106 0.853524 
-0.205958 0.120106 0.853524 
-0.135583 0.11986 0.850524 
-0.133973 0.119696 0.848524 
-0.132431 0.119614 0.847524 
-0.129301 0.119369 0.844524 
-0.127718 0.119205 0.842524 
-0.126143 0.119041 0.840524 
-0.124625 0.118959 0.839524 
-0.123063 0.118795 0.837524 
-0.121554 0.118713 0.836524 
-0.120006 0.11855 0.834524 
-0.118549 0.11855 0.834524 
-0.117092 0.11855 0.834524 
-0.115634 0.11855 0.834524 
-0.114141 0.118468 0.833524 
-0.112652 0.118386 0.832524 
-0.0994687 0.117894 0.826524 
-0.098042 0.117976 0.827524 
-0.0966115 0.118058 0.828524 
-0.0951772 0.11814 0.829524 
-0.0937391 0.118222 0.830524 
-0.0922972 0.118304 0.831524 
-0.0908458 0.118304 0.831524 
-0.0893982 0.118386 0.832524 
-0.0879468 0.118468 0.833524 
-0.0864915 0.118468 0.833524 
-0.0850344 0.11855 0.834524 
-0.0835734 0.118632 0.835524 
-0.0821144 0.118632 0.835524 
-0.0806477 0.118713 0.836524 
-0.0791772 0.118795 0.837524 
-0.0777144 0.118795 0.837524 
-0.0762382 0.118877 0.838524 
-0.0747734 0.118877 0.838524 
-0.0732915 0.118959 0.839524 
-0.0718249 0.118959 0.839524 
-0.0703582 0.118959 0.839524 
-0.0688915 0.118959 0.839524 
-0.0674249 0.118959 0.839524 
0.045737 0.119778 0.849524 
0.0470513 0.119696 0.848524 
0.0483618 0.119614 0.847524 
0.0496685 0.119533 0.846524 
0.0511485 0.119533 0.846524 
0.0524494 0.119451 0.845524 
0.0539275 0.119451 0.845524 
0.0552228 0.119369 0.844524 
0.0566989 0.119369 0.844524 
0.0579885 0.119287 0.843524 
0.0594628 0.119287 0.843524 
0.0609371 0.119287 0.843524 
0.0624113 0.119287 0.843524 
0.0638856 0.119287 0.843524 
0.0655561 0.119369 0.844524 
0.0670323 0.119369 0.844524 
0.0687085 0.119451 0.845524 
0.0701866 0.119451 0.845524 
0.0718685 0.119533 0.846524 
-0.266301 0.12294 0.869524 
-0.262772 0.122186 0.860524 
-0.261044 0.122102 0.859524 
-0.259539 0.122102 0.859524 
-0.257817 0.122018 0.858524 
-0.256314 0.122018 0.858524 
-0.254598 0.121934 0.857524 
-0.253097 0.121934 0.857524 
-0.251387 0.121851 0.856524 
-0.249888 0.121851 0.856524 
-0.248389 0.121851 0.856524 
-0.246686 0.121767 0.855524 
-0.245189 0.121767 0.855524 
-0.243492 0.121683 0.854524 
-0.241996 0.121683 0.854524 
-0.240305 0.121599 0.853524 
-0.238812 0.121599 0.853524 
-0.237126 0.121515 0.852524 
-0.235634 0.121515 0.852524 
-0.234143 0.121515 0.852524 
-0.232465 0.121432 0.851524 
-0.230791 0.121348 0.850524 
-0.229303 0.121348 0.850524 
-0.227634 0.121264 0.849524 
-0.22597 0.12118 0.848524 
-0.224309 0.121096 0.847524 
-0.222652 0.121013 0.846524 
-0.221172 0.121013 0.846524 
-0.219692 0.121013 0.846524 
-0.218381 0.121096 0.847524 
-0.217067 0.12118 0.848524 
-0.215749 0.121264 0.849524 
-0.214427 0.121348 0.850524 
-0.212939 0.121348 0.850524 
-0.211612 0.121432 0.851524 
-0.21028 0.121515 0.852524 
-0.208789 0.121515 0.852524 
-0.207452 0.121599 0.853524 
-0.205958 0.121599 0.853524 
-0.204615 0.121683 0.854524 
-0.133973 0.12118 0.848524 
-0.132431 0.121096 0.847524 
-0.126143 0.12051 0.840524 
-0.124625 0.120426 0.839524 
-0.123111 0.120342 0.838524 
-0.1216 0.120258 0.837524 
-0.120137 0.120258 0.837524 
-0.118632 0.120174 0.836524 
-0.117172 0.120174 0.836524 
-0.115672 0.120091 0.835524 
-0.114213 0.120091 0.835524 
-0.11272 0.120007 0.834524 
-0.102394 0.119504 0.828524 
-0.0994858 0.11942 0.827524 
-0.0980572 0.119504 0.828524 
-0.0966382 0.119672 0.830524 
-0.0951887 0.119672 0.830524 
-0.0937487 0.119755 0.831524 
-0.0923049 0.119839 0.832524 
-0.0908572 0.119923 0.833524 
-0.089402 0.119923 0.833524 
-0.0879487 0.120007 0.834524 
-0.0864915 0.120091 0.835524 
-0.0850325 0.120091 0.835524 
-0.0835696 0.120174 0.836524 
-0.082103 0.120258 0.837524 
-0.0806401 0.120258 0.837524 
-0.0791677 0.120342 0.838524 
-0.0776915 0.120426 0.839524 
-0.0762249 0.120426 0.839524 
-0.074743 0.12051 0.840524 
-0.0732744 0.12051 0.840524 
-0.0717868 0.120593 0.841524 
-0.0688458 0.120593 0.841524 
-0.0674001 0.12051 0.840524 
-0.0659315 0.12051 0.840524 
-0.0644915 0.120426 0.839524 
-0.0615582 0.120426 0.839524 
-0.0600572 0.12051 0.840524 
0.0442513 0.121264 0.849524 
0.0455675 0.12118 0.848524 
0.0468799 0.121096 0.847524 
0.0483618 0.121096 0.847524 
0.0496685 0.121013 0.846524 
0.0509713 0.120929 0.845524 
0.0524494 0.120929 0.845524 
0.0537466 0.120845 0.844524 
0.0552228 0.120845 0.844524 
0.0565142 0.120761 0.843524 
0.0579885 0.120761 0.843524 
0.0592742 0.120677 0.842524 
0.0607466 0.120677 0.842524 
0.062219 0.120677 0.842524 
0.0638856 0.120761 0.843524 
0.0653599 0.120761 0.843524 
0.0670323 0.120845 0.844524 
0.0685085 0.120845 0.844524 
0.0701866 0.120929 0.845524 
0.0718685 0.121013 0.846524 
0.0735542 0.121096 0.847524 
-0.265785 0.123693 0.860524 
-0.264053 0.123607 0.859524 
-0.262549 0.123607 0.859524 
-0.260823 0.123521 0.858524 
-0.25932 0.123521 0.858524 
-0.2576 0.123435 0.857524 
-0.256099 0.123435 0.857524 
-0.254598 0.123435 0.857524 
-0.252886 0.12335 0.856524 
-0.251387 0.12335 0.856524 
-0.24968 0.123264 0.855524 
-0.248183 0.123264 0.855524 
-0.246482 0.123178 0.854524 
-0.244987 0.123178 0.854524 
-0.243292 0.123093 0.853524 
-0.241798 0.123093 0.853524 
-0.240305 0.123093 0.853524 
-0.238617 0.123007 0.852524 
-0.237126 0.123007 0.852524 
-0.235444 0.122921 0.851524 
-0.233954 0.122921 0.851524 
-0.232278 0.122835 0.850524 
-0.230791 0.122835 0.850524 
-0.22912 0.12275 0.849524 
-0.227453 0.122664 0.848524 
-0.225791 0.122578 0.847524 
-0.224132 0.122493 0.846524 
-0.222476 0.122407 0.845524 
-0.220998 0.122407 0.845524 
-0.219692 0.122493 0.846524 
-0.218381 0.122578 0.847524 
-0.217067 0.122664 0.848524 
-0.215749 0.12275 0.849524 
-0.214263 0.12275 0.849524 
-0.212939 0.122835 0.850524 
-0.211612 0.122921 0.851524 
-0.210122 0.122921 0.851524 
-0.208789 0.123007 0.852524 
-0.207452 0.123093 0.853524 
-0.205958 0.123093 0.853524 
-0.204615 0.123178 0.854524 
-0.135583 0.122835 0.850524 
-0.133973 0.122664 0.848524 
-0.132372 0.122493 0.846524 
-0.126143 0.121978 0.840524 
-0.124625 0.121893 0.839524 
-0.123158 0.121893 0.839524 
-0.120225 0.121893 0.839524 
-0.118716 0.121807 0.838524 
-0.117252 0.121807 0.838524 
-0.115749 0.121721 0.837524 
-0.11425 0.121635 0.836524 
-0.112789 0.121635 0.836524 
-0.111295 0.12155 0.835524 
-0.109806 0.121464 0.834524 
-0.105385 0.121293 0.832524 
-0.103909 0.121207 0.831524 
-0.102436 0.121121 0.830524 
-0.100949 0.12095 0.828524 
-0.099503 0.12095 0.828524 
-0.0980725 0.121035 0.829524 
-0.0966515 0.121207 0.831524 
-0.0952115 0.121293 0.832524 
-0.0937582 0.121293 0.832524 
-0.0923125 0.121378 0.833524 
-0.090863 0.121464 0.834524 
-0.0894096 0.12155 0.835524 
-0.0879506 0.12155 0.835524 
-0.0864915 0.121635 0.836524 
-0.0850287 0.121721 0.837524 
-0.0835658 0.121721 0.837524 
-0.0820972 0.121807 0.838524 
-0.0806249 0.121893 0.839524 
-0.0791582 0.121893 0.839524 
-0.0776801 0.121978 0.840524 
-0.0762115 0.121978 0.840524 
-0.0747277 0.122064 0.841524 
-0.0732401 0.12215 0.842524 
-0.0702744 0.122235 0.843524 
-0.0688001 0.122235 0.843524 
-0.067301 0.122321 0.844524 
-0.0658249 0.122321 0.844524 
-0.0643201 0.122407 0.845524 
-0.0629944 0.121978 0.840524 
-0.0615582 0.121893 0.839524 
-0.0586249 0.121893 0.839524 
-0.0571582 0.121893 0.839524 
0.0427656 0.12275 0.849524 
0.0440837 0.122664 0.848524 
0.045398 0.122578 0.847524 
0.0468799 0.122578 0.847524 
0.0481885 0.122493 0.846524 
0.0496685 0.122493 0.846524 
0.0509713 0.122407 0.845524 
0.0522704 0.122321 0.844524 
0.0537466 0.122321 0.844524 
0.0550399 0.122235 0.843524 
0.0565142 0.122235 0.843524 
0.0578018 0.12215 0.842524 
0.0592742 0.12215 0.842524 
0.0607466 0.12215 0.842524 
0.062219 0.12215 0.842524 
0.0638856 0.122235 0.843524 
0.0653599 0.122235 0.843524 
0.0670323 0.122321 0.844524 
0.0685085 0.122321 0.844524 
0.0701866 0.122407 0.845524 
0.0716647 0.122407 0.845524 
0.0733485 0.122493 0.846524 
-0.270537 0.125287 0.861524 
-0.268798 0.125199 0.860524 
-0.267063 0.125112 0.859524 
-0.265558 0.125112 0.859524 
-0.264053 0.125112 0.859524 
-0.262326 0.125024 0.858524 
-0.260823 0.125024 0.858524 
-0.259101 0.124936 0.857524 
-0.2576 0.124936 0.857524 
-0.255884 0.124849 0.856524 
-0.254385 0.124849 0.856524 
-0.252886 0.124849 0.856524 
-0.251177 0.124761 0.855524 
-0.24968 0.124761 0.855524 
-0.247977 0.124673 0.854524 
-0.246482 0.124673 0.854524 
-0.244785 0.124586 0.853524 
-0.243292 0.124586 0.853524 
-0.2416 0.124498 0.852524 
-0.240109 0.124498 0.852524 
-0.238617 0.124498 0.852524 
-0.236933 0.124411 0.851524 
-0.235444 0.124411 0.851524 
-0.233766 0.124323 0.850524 
-0.232092 0.124235 0.849524 
-0.230606 0.124235 0.849524 
-0.228937 0.124148 0.848524 
-0.227272 0.12406 0.847524 
-0.225791 0.12406 0.847524 
-0.223954 0.123885 0.845524 
-0.222476 0.123885 0.845524 
-0.220998 0.123885 0.845524 
-0.219692 0.123973 0.846524 
-0.218381 0.12406 0.847524 
-0.217067 0.124148 0.848524 
-0.215749 0.124235 0.849524 
-0.214263 0.124235 0.849524 
-0.212939 0.124323 0.850524 
-0.211612 0.124411 0.851524 
-0.210122 0.124411 0.851524 
-0.208789 0.124498 0.852524 
-0.207297 0.124498 0.852524 
-0.205958 0.124586 0.853524 
-0.204615 0.124673 0.854524 
-0.20312 0.124673 0.854524 
-0.13072 0.12371 0.843524 
-0.121783 0.123534 0.841524 
-0.120312 0.123534 0.841524 
-0.1188 0.123447 0.840524 
-0.117292 0.123359 0.839524 
-0.115825 0.123359 0.839524 
-0.114322 0.123272 0.838524 
-0.112823 0.123184 0.837524 
-0.111328 0.123096 0.836524 
-0.109867 0.123096 0.836524 
-0.108377 0.123009 0.835524 
-0.106892 0.122921 0.834524 
-0.10541 0.122833 0.833524 
-0.103954 0.122833 0.833524 
-0.102457 0.122658 0.831524 
-0.100987 0.122571 0.830524 
-0.0995372 0.122571 0.830524 
-0.098103 0.122658 0.831524 
-0.0966649 0.122746 0.832524 
-0.095223 0.122833 0.833524 
-0.0937772 0.122921 0.834524 
-0.0923201 0.122921 0.834524 
-0.0908687 0.123009 0.835524 
-0.0894134 0.123096 0.836524 
-0.0879544 0.123184 0.837524 
-0.0864915 0.123184 0.837524 
-0.0850268 0.123272 0.838524 
-0.0835582 0.123359 0.839524 
-0.0820915 0.123359 0.839524 
-0.0806172 0.123447 0.840524 
-0.0791487 0.123447 0.840524 
-0.0776687 0.123534 0.841524 
-0.0747125 0.123622 0.842524 
-0.073223 0.12371 0.843524 
-0.0717296 0.123797 0.844524 
-0.0702534 0.123797 0.844524 
-0.0687544 0.123885 0.845524 
-0.0672515 0.123973 0.846524 
-0.0586249 0.123359 0.839524 
-0.0571963 0.123272 0.838524 
0.040118 0.124411 0.851524 
0.0412799 0.124235 0.849524 
0.0425999 0.124148 0.848524 
0.0440837 0.124148 0.848524 
0.045398 0.12406 0.847524 
0.0467085 0.123973 0.846524 
0.0481885 0.123973 0.846524 
0.0494932 0.123885 0.845524 
0.0509713 0.123885 0.845524 
0.0522704 0.123797 0.844524 
0.0535656 0.12371 0.843524 
0.0550399 0.12371 0.843524 
0.0563294 0.123622 0.842524 
0.0578018 0.123622 0.842524 
0.0592742 0.123622 0.842524 
0.0607466 0.123622 0.842524 
0.062219 0.123622 0.842524 
0.0636913 0.123622 0.842524 
0.0653599 0.12371 0.843524 
0.0668342 0.12371 0.843524 
0.0685085 0.123797 0.844524 
0.0699847 0.123797 0.844524 
0.0716647 0.123885 0.845524 
0.0733485 0.123973 0.846524 
0.0748285 0.123973 0.846524 
-0.273554 0.126795 0.861524 
-0.271812 0.126706 0.860524 
-0.270305 0.126706 0.860524 
-0.268568 0.126616 0.859524 
-0.267063 0.126616 0.859524 
-0.265332 0.126527 0.858524 
-0.263829 0.126527 0.858524 
-0.262103 0.126437 0.857524 
-0.260602 0.126437 0.857524 
-0.259101 0.126437 0.857524 
-0.257383 0.126348 0.856524 
-0.255884 0.126348 0.856524 
-0.254172 0.126258 0.855524 
-0.252674 0.126258 0.855524 
-0.250968 0.126169 0.854524 
-0.249472 0.126169 0.854524 
-0.247977 0.126169 0.854524 
-0.246278 0.126079 0.853524 
-0.244785 0.126079 0.853524 
-0.243092 0.12599 0.852524 
-0.2416 0.12599 0.852524 
-0.239912 0.1259 0.851524 
-0.238423 0.1259 0.851524 
-0.236741 0.125811 0.850524 
-0.235253 0.125811 0.850524 
-0.233577 0.125721 0.849524 
-0.232092 0.125721 0.849524 
-0.230421 0.125632 0.848524 
-0.228754 0.125542 0.847524 
-0.227272 0.125542 0.847524 
-0.225612 0.125453 0.846524 
-0.223777 0.125273 0.844524 
-0.222301 0.125273 0.844524 
-0.220998 0.125363 0.845524 
-0.219692 0.125453 0.846524 
-0.218381 0.125542 0.847524 
-0.217067 0.125632 0.848524 
-0.215749 0.125721 0.849524 
-0.214263 0.125721 0.849524 
-0.212939 0.125811 0.850524 
-0.211612 0.1259 0.851524 
-0.210122 0.1259 0.851524 
-0.208789 0.12599 0.852524 
-0.207297 0.12599 0.852524 
-0.205958 0.126079 0.853524 
-0.204465 0.126079 0.853524 
-0.20312 0.126169 0.854524 
-0.201772 0.126258 0.855524 
-0.13072 0.125184 0.843524 
-0.129246 0.125184 0.843524 
-0.127772 0.125184 0.843524 
-0.121874 0.125184 0.843524 
-0.120356 0.125094 0.842524 
-0.118842 0.125005 0.841524 
-0.117372 0.125005 0.841524 
-0.115863 0.124915 0.840524 
-0.114358 0.124826 0.839524 
-0.112892 0.124826 0.839524 
-0.111392 0.124736 0.838524 
-0.109897 0.124647 0.837524 
-0.108406 0.124557 0.836524 
-0.106945 0.124557 0.836524 
-0.105459 0.124468 0.835524 
-0.103977 0.124378 0.834524 
-0.102499 0.124289 0.833524 
-0.101025 0.124199 0.832524 
-0.0995544 0.12411 0.831524 
-0.0981182 0.124199 0.832524 
-0.0966782 0.124289 0.833524 
-0.0952344 0.124378 0.834524 
-0.0937868 0.124468 0.835524 
-0.0923353 0.124557 0.836524 
-0.0908744 0.124557 0.836524 
-0.0894172 0.124647 0.837524 
-0.0879563 0.124736 0.838524 
-0.0864915 0.124736 0.838524 
-0.0850249 0.124826 0.839524 
-0.0835544 0.124915 0.840524 
-0.0820858 0.124915 0.840524 
-0.0806096 0.125005 0.841524 
-0.0791296 0.125094 0.842524 
-0.0776572 0.125094 0.842524 
-0.0702115 0.125453 0.846524 
-0.0557315 0.124736 0.838524 
-0.0542668 0.124736 0.838524 
-0.0528458 0.124647 0.837524 
0.0384685 0.125811 0.850524 
0.0397942 0.125721 0.849524 
0.0411161 0.125632 0.848524 
0.0425999 0.125632 0.848524 
0.0439161 0.125542 0.847524 
0.045398 0.125542 0.847524 
0.0467085 0.125453 0.846524 
0.0480151 0.125363 0.845524 
0.0494932 0.125363 0.845524 
0.0507942 0.125273 0.844524 
0.0522704 0.125273 0.844524 
0.0535656 0.125184 0.843524 
0.0548571 0.125094 0.842524 
0.0563294 0.125094 0.842524 
0.0576151 0.125005 0.841524 
0.0590856 0.125005 0.841524 
0.0605561 0.125005 0.841524 
0.0620266 0.125005 0.841524 
0.0636913 0.125094 0.842524 
0.0651637 0.125094 0.842524 
0.0668342 0.125184 0.843524 
0.0685085 0.125273 0.844524 
0.0699847 0.125273 0.844524 
0.0716647 0.125363 0.845524 
0.0731428 0.125363 0.845524 
0.0748285 0.125453 0.846524 
0.076518 0.125542 0.847524 
-0.27808 0.128304 0.861524 
-0.276332 0.128213 0.860524 
-0.274825 0.128213 0.860524 
-0.273318 0.128213 0.860524 
-0.271577 0.128121 0.859524 
-0.270072 0.128121 0.859524 
-0.268568 0.128121 0.859524 
-0.266834 0.12803 0.858524 
-0.265332 0.12803 0.858524 
-0.263604 0.127938 0.857524 
-0.262103 0.127938 0.857524 
-0.260381 0.127847 0.856524 
-0.258882 0.127847 0.856524 
-0.257383 0.127847 0.856524 
-0.255669 0.127755 0.855524 
-0.254172 0.127755 0.855524 
-0.252463 0.127664 0.854524 
-0.250968 0.127664 0.854524 
-0.249265 0.127573 0.853524 
-0.247772 0.127573 0.853524 
-0.246074 0.127481 0.852524 
-0.244583 0.127481 0.852524 
-0.242892 0.12739 0.851524 
-0.241402 0.12739 0.851524 
-0.239912 0.12739 0.851524 
-0.238229 0.127298 0.850524 
-0.236741 0.127298 0.850524 
-0.235063 0.127207 0.849524 
-0.233577 0.127207 0.849524 
-0.231905 0.127115 0.848524 
-0.230236 0.127024 0.847524 
-0.228754 0.127024 0.847524 
-0.227092 0.126933 0.846524 
-0.225432 0.126841 0.845524 
-0.223777 0.12675 0.844524 
-0.222301 0.12675 0.844524 
-0.220998 0.126841 0.845524 
-0.219692 0.126933 0.846524 
-0.218381 0.127024 0.847524 
-0.217067 0.127115 0.848524 
-0.215749 0.127207 0.849524 
-0.214263 0.127207 0.849524 
-0.212939 0.127298 0.850524 
-0.211452 0.127298 0.850524 
-0.210122 0.12739 0.851524 
-0.208632 0.12739 0.851524 
-0.207297 0.127481 0.852524 
-0.205958 0.127573 0.853524 
-0.204465 0.127573 0.853524 
-0.202972 0.127573 0.853524 
-0.201625 0.127664 0.854524 
-0.130777 0.12675 0.844524 
-0.129467 0.127024 0.847524 
-0.127985 0.127024 0.847524 
-0.120444 0.12675 0.844524 
-0.118926 0.126658 0.843524 
-0.117412 0.126567 0.842524 
-0.115939 0.126567 0.842524 
-0.114431 0.126475 0.841524 
-0.112926 0.126384 0.840524 
-0.111425 0.126292 0.839524 
-0.109958 0.126292 0.839524 
-0.108463 0.126201 0.838524 
-0.106972 0.12611 0.837524 
-0.105484 0.126018 0.836524 
-0.104023 0.126018 0.836524 
-0.102541 0.125927 0.835524 
-0.101063 0.125835 0.834524 
-0.0995887 0.125744 0.833524 
-0.0981334 0.125744 0.833524 
-0.0966915 0.125835 0.834524 
-0.0952458 0.125927 0.835524 
-0.0937963 0.126018 0.836524 
-0.092343 0.12611 0.837524 
-0.0908858 0.126201 0.838524 
-0.089421 0.126201 0.838524 
-0.0879582 0.126292 0.839524 
-0.0864915 0.126384 0.840524 
-0.085023 0.126384 0.840524 
-0.0835506 0.126475 0.841524 
-0.0820744 0.126567 0.842524 
-0.080602 0.126567 0.842524 
-0.0791201 0.126658 0.843524 
-0.0716915 0.126933 0.846524 
-0.0528458 0.12611 0.837524 
-0.051383 0.12611 0.837524 
0.0369809 0.127298 0.850524 
0.0383085 0.127207 0.849524 
0.0397942 0.127207 0.849524 
0.0411161 0.127115 0.848524 
0.0424342 0.127024 0.847524 
0.0439161 0.127024 0.847524 
0.0452285 0.126933 0.846524 
0.0467085 0.126933 0.846524 
0.0480151 0.126841 0.845524 
0.049318 0.12675 0.844524 
0.0507942 0.12675 0.844524 
0.0520913 0.126658 0.843524 
0.0535656 0.126658 0.843524 
0.0548571 0.126567 0.842524 
0.0561447 0.126475 0.841524 
0.0576151 0.126475 0.841524 
0.0590856 0.126475 0.841524 
0.0605561 0.126475 0.841524 
0.0620266 0.126475 0.841524 
0.063497 0.126475 0.841524 
0.0651637 0.126567 0.842524 
0.0668342 0.126658 0.843524 
0.0683085 0.126658 0.843524 
0.0699847 0.12675 0.844524 
0.0714609 0.12675 0.844524 
0.0731428 0.126841 0.845524 
0.0748285 0.126933 0.846524 
0.0763085 0.126933 0.846524 
0.0779999 0.127024 0.847524 
-0.282358 0.129719 0.860524 
-0.280852 0.129719 0.860524 
-0.279345 0.129719 0.860524 
-0.277596 0.129626 0.859524 
-0.276092 0.129626 0.859524 
-0.274587 0.129626 0.859524 
-0.273082 0.129626 0.859524 
-0.271577 0.129626 0.859524 
-0.26984 0.129533 0.858524 
-0.268337 0.129533 0.858524 
-0.266834 0.129533 0.858524 
-0.265105 0.129439 0.857524 
-0.263604 0.129439 0.857524 
-0.26188 0.129346 0.856524 
-0.260381 0.129346 0.856524 
-0.258663 0.129253 0.855524 
-0.257166 0.129253 0.855524 
-0.255453 0.129159 0.854524 
-0.253958 0.129159 0.854524 
-0.252463 0.129159 0.854524 
-0.250758 0.129066 0.853524 
-0.249265 0.129066 0.853524 
-0.247566 0.128973 0.852524 
-0.246074 0.128973 0.852524 
-0.244381 0.128879 0.851524 
-0.242892 0.128879 0.851524 
-0.241204 0.128786 0.850524 
-0.239716 0.128786 0.850524 
-0.238229 0.128786 0.850524 
-0.236549 0.128693 0.849524 
-0.235063 0.128693 0.849524 
-0.233389 0.128599 0.848524 
-0.231718 0.128506 0.847524 
-0.230236 0.128506 0.847524 
-0.228572 0.128413 0.846524 
-0.226911 0.128319 0.845524 
-0.225074 0.128133 0.843524 
-0.2236 0.128133 0.843524 
-0.222301 0.128226 0.844524 
-0.220998 0.128319 0.845524 
-0.219692 0.128413 0.846524 
-0.218381 0.128506 0.847524 
-0.217067 0.128599 0.848524 
-0.215583 0.128599 0.848524 
-0.214263 0.128693 0.849524 
-0.212939 0.128786 0.850524 
-0.211452 0.128786 0.850524 
-0.210122 0.128879 0.851524 
-0.208632 0.128879 0.851524 
-0.207297 0.128973 0.852524 
-0.205806 0.128973 0.852524 
-0.204465 0.129066 0.853524 
-0.202972 0.129066 0.853524 
-0.201625 0.129159 0.854524 
-0.20013 0.129159 0.854524 
-0.13112 0.128786 0.850524 
-0.129577 0.128693 0.849524 
-0.128092 0.128693 0.849524 
-0.126554 0.128599 0.848524 
-0.125021 0.128506 0.847524 
-0.120488 0.128319 0.845524 
-0.11901 0.128319 0.845524 
-0.117492 0.128226 0.844524 
-0.115977 0.128133 0.843524 
-0.114467 0.128039 0.842524 
-0.112994 0.128039 0.842524 
-0.11149 0.127946 0.841524 
-0.109989 0.127852 0.840524 
-0.10852 0.127852 0.840524 
-0.107025 0.127759 0.839524 
-0.105533 0.127666 0.838524 
-0.104046 0.127573 0.837524 
-0.102562 0.127479 0.836524 
-0.101082 0.127386 0.835524 
-0.0996058 0.127293 0.834524 
-0.0981639 0.127386 0.835524 
-0.0967182 0.127479 0.836524 
-0.0952572 0.127479 0.836524 
-0.0938058 0.127573 0.837524 
-0.0923506 0.127666 0.838524 
-0.0908915 0.127759 0.839524 
-0.0894287 0.127852 0.840524 
-0.0879601 0.127852 0.840524 
-0.0864915 0.127946 0.841524 
-0.0820687 0.128133 0.843524 
-0.0791106 0.128226 0.844524 
-0.077623 0.128319 0.845524 
-0.0746515 0.128413 0.846524 
-0.0731544 0.128506 0.847524 
0.0354932 0.128786 0.850524 
0.0369809 0.128786 0.850524 
0.0383085 0.128693 0.849524 
0.0396323 0.128599 0.848524 
0.0411161 0.128599 0.848524 
0.0424342 0.128506 0.847524 
0.0437485 0.128413 0.846524 
0.0452285 0.128413 0.846524 
0.0465371 0.128319 0.845524 
0.0480151 0.128319 0.845524 
0.049318 0.128226 0.844524 
0.0507942 0.128226 0.844524 
0.0520913 0.128133 0.843524 
0.0533847 0.128039 0.842524 
0.0548571 0.128039 0.842524 
0.0561447 0.127946 0.841524 
0.0576151 0.127946 0.841524 
0.058897 0.127852 0.840524 
0.0603656 0.127852 0.840524 
0.0618342 0.127852 0.840524 
0.063497 0.127946 0.841524 
0.0651637 0.128039 0.842524 
0.0666361 0.128039 0.842524 
0.0683085 0.128133 0.843524 
0.0699847 0.128226 0.844524 
0.0714609 0.128226 0.844524 
0.0731428 0.128319 0.845524 
0.0746209 0.128319 0.845524 
0.0763085 0.128413 0.846524 
0.0779999 0.128506 0.847524 
0.0796952 0.128599 0.848524 
-0.287132 0.131321 0.861524 
-0.285372 0.131226 0.860524 
-0.283865 0.131226 0.860524 
-0.282111 0.131131 0.859524 
-0.280606 0.131131 0.859524 
-0.279101 0.131131 0.859524 
-0.277596 0.131131 0.859524 
-0.276092 0.131131 0.859524 
-0.274349 0.131035 0.858524 
-0.272846 0.131035 0.858524 
-0.271343 0.131035 0.858524 
-0.26984 0.131035 0.858524 
-0.268107 0.13094 0.857524 
-0.266606 0.13094 0.857524 
-0.264878 0.130845 0.856524 
-0.263379 0.130845 0.856524 
-0.26188 0.130845 0.856524 
-0.26016 0.13075 0.855524 
-0.258663 0.13075 0.855524 
-0.256949 0.130654 0.854524 
-0.255453 0.130654 0.854524 
-0.253745 0.130559 0.853524 
-0.252252 0.130559 0.853524 
-0.250549 0.130464 0.852524 
-0.249057 0.130464 0.852524 
-0.247566 0.130464 0.852524 
-0.245871 0.130369 0.851524 
-0.244381 0.130369 0.851524 
-0.242692 0.130273 0.850524 
-0.241204 0.130273 0.850524 
-0.23952 0.130178 0.849524 
-0.238034 0.130178 0.849524 
-0.236356 0.130083 0.848524 
-0.234872 0.130083 0.848524 
-0.2332 0.129988 0.847524 
-0.231718 0.129988 0.847524 
-0.230052 0.129892 0.846524 
-0.228389 0.129797 0.845524 
-0.22673 0.129702 0.844524 
-0.225074 0.129607 0.843524 
-0.223777 0.129702 0.844524 
-0.222476 0.129797 0.845524 
-0.221172 0.129892 0.846524 
-0.219692 0.129892 0.846524 
-0.218381 0.129988 0.847524 
-0.217067 0.130083 0.848524 
-0.215583 0.130083 0.848524 
-0.214263 0.130178 0.849524 
-0.212939 0.130273 0.850524 
-0.211452 0.130273 0.850524 
-0.209964 0.130273 0.850524 
